1.432000000000000000e+03,1.431000000000000000e+03,1.431000000000000000e+03,1.429000000000000000e+03,1.428000000000000000e+03,1.426000000000000000e+03,1.426000000000000000e+03,1.426000000000000000e+03,1.427000000000000000e+03,1.428000000000000000e+03,1.429000000000000000e+03,1.428000000000000000e+03,1.428000000000000000e+03,1.428000000000000000e+03,1.427000000000000000e+03,1.428000000000000000e+03,1.429000000000000000e+03,1.429000000000000000e+03,1.429000000000000000e+03,1.429000000000000000e+03,1.429000000000000000e+03,1.429000000000000000e+03,1.430000000000000000e+03,1.431000000000000000e+03,1.432000000000000000e+03,1.432000000000000000e+03,1.433000000000000000e+03,1.434000000000000000e+03,1.433000000000000000e+03,1.432000000000000000e+03,1.431000000000000000e+03,1.431000000000000000e+03,1.430000000000000000e+03,1.431000000000000000e+03,1.431000000000000000e+03,1.432000000000000000e+03,1.431000000000000000e+03,1.431000000000000000e+03,1.431000000000000000e+03,1.432000000000000000e+03,1.431000000000000000e+03,1.433000000000000000e+03,1.434000000000000000e+03,1.434000000000000000e+03,1.435000000000000000e+03,1.434000000000000000e+03,1.433000000000000000e+03,1.433000000000000000e+03,1.433000000000000000e+03,1.431000000000000000e+03,1.427000000000000000e+03,1.424000000000000000e+03,1.423000000000000000e+03,1.422000000000000000e+03,1.424000000000000000e+03,1.426000000000000000e+03,1.429000000000000000e+03,1.431000000000000000e+03,1.435000000000000000e+03,1.436000000000000000e+03,1.436000000000000000e+03,1.437000000000000000e+03,1.436000000000000000e+03,1.435000000000000000e+03,1.436000000000000000e+03,1.436000000000000000e+03,1.436000000000000000e+03,1.435000000000000000e+03,1.436000000000000000e+03,1.435000000000000000e+03,1.436000000000000000e+03,1.435000000000000000e+03,1.435000000000000000e+03,1.436000000000000000e+03,1.435000000000000000e+03,1.434000000000000000e+03,1.435000000000000000e+03,1.434000000000000000e+03,1.432000000000000000e+03,1.432000000000000000e+03,1.433000000000000000e+03,1.433000000000000000e+03,1.434000000000000000e+03,1.435000000000000000e+03,1.435000000000000000e+03,1.436000000000000000e+03,1.435000000000000000e+03,1.436000000000000000e+03,1.436000000000000000e+03,1.437000000000000000e+03,1.436000000000000000e+03,1.435000000000000000e+03,1.435000000000000000e+03,1.435000000000000000e+03,1.434000000000000000e+03,1.434000000000000000e+03,1.435000000000000000e+03,1.434000000000000000e+03,1.434000000000000000e+03,1.434000000000000000e+03,1.433000000000000000e+03,1.433000000000000000e+03,1.434000000000000000e+03,1.433000000000000000e+03,1.434000000000000000e+03,1.435000000000000000e+03,1.435000000000000000e+03,1.435000000000000000e+03,1.435000000000000000e+03,1.434000000000000000e+03,1.433000000000000000e+03,1.432000000000000000e+03,1.431000000000000000e+03,1.431000000000000000e+03,1.433000000000000000e+03,1.434000000000000000e+03,1.433000000000000000e+03,1.434000000000000000e+03,1.434000000000000000e+03
1.433000000000000000e+03,1.432000000000000000e+03,1.430000000000000000e+03,1.430000000000000000e+03,1.428000000000000000e+03,1.426000000000000000e+03,1.425000000000000000e+03,1.426000000000000000e+03,1.427000000000000000e+03,1.429000000000000000e+03,1.429000000000000000e+03,1.429000000000000000e+03,1.430000000000000000e+03,1.429000000000000000e+03,1.428000000000000000e+03,1.429000000000000000e+03,1.430000000000000000e+03,1.429000000000000000e+03,1.429000000000000000e+03,1.430000000000000000e+03,1.430000000000000000e+03,1.430000000000000000e+03,1.432000000000000000e+03,1.434000000000000000e+03,1.435000000000000000e+03,1.434000000000000000e+03,1.435000000000000000e+03,1.435000000000000000e+03,1.434000000000000000e+03,1.431000000000000000e+03,1.430000000000000000e+03,1.429000000000000000e+03,1.429000000000000000e+03,1.430000000000000000e+03,1.431000000000000000e+03,1.433000000000000000e+03,1.433000000000000000e+03,1.433000000000000000e+03,1.432000000000000000e+03,1.432000000000000000e+03,1.432000000000000000e+03,1.434000000000000000e+03,1.434000000000000000e+03,1.435000000000000000e+03,1.435000000000000000e+03,1.435000000000000000e+03,1.434000000000000000e+03,1.434000000000000000e+03,1.434000000000000000e+03,1.432000000000000000e+03,1.430000000000000000e+03,1.427000000000000000e+03,1.424000000000000000e+03,1.424000000000000000e+03,1.425000000000000000e+03,1.427000000000000000e+03,1.429000000000000000e+03,1.431000000000000000e+03,1.434000000000000000e+03,1.435000000000000000e+03,1.435000000000000000e+03,1.436000000000000000e+03,1.435000000000000000e+03,1.434000000000000000e+03,1.435000000000000000e+03,1.436000000000000000e+03,1.436000000000000000e+03,1.436000000000000000e+03,1.436000000000000000e+03,1.436000000000000000e+03,1.436000000000000000e+03,1.435000000000000000e+03,1.436000000000000000e+03,1.436000000000000000e+03,1.435000000000000000e+03,1.435000000000000000e+03,1.436000000000000000e+03,1.436000000000000000e+03,1.434000000000000000e+03,1.432000000000000000e+03,1.432000000000000000e+03,1.432000000000000000e+03,1.432000000000000000e+03,1.434000000000000000e+03,1.435000000000000000e+03,1.436000000000000000e+03,1.436000000000000000e+03,1.436000000000000000e+03,1.437000000000000000e+03,1.437000000000000000e+03,1.437000000000000000e+03,1.436000000000000000e+03,1.436000000000000000e+03,1.437000000000000000e+03,1.436000000000000000e+03,1.436000000000000000e+03,1.437000000000000000e+03,1.436000000000000000e+03,1.435000000000000000e+03,1.435000000000000000e+03,1.434000000000000000e+03,1.434000000000000000e+03,1.434000000000000000e+03,1.434000000000000000e+03,1.435000000000000000e+03,1.435000000000000000e+03,1.435000000000000000e+03,1.435000000000000000e+03,1.435000000000000000e+03,1.433000000000000000e+03,1.432000000000000000e+03,1.431000000000000000e+03,1.430000000000000000e+03,1.432000000000000000e+03,1.434000000000000000e+03,1.434000000000000000e+03,1.434000000000000000e+03,1.434000000000000000e+03,1.434000000000000000e+03
1.432000000000000000e+03,1.432000000000000000e+03,1.430000000000000000e+03,1.430000000000000000e+03,1.426000000000000000e+03,1.426000000000000000e+03,1.425000000000000000e+03,1.426000000000000000e+03,1.428000000000000000e+03,1.430000000000000000e+03,1.430000000000000000e+03,1.431000000000000000e+03,1.431000000000000000e+03,1.430000000000000000e+03,1.428000000000000000e+03,1.429000000000000000e+03,1.430000000000000000e+03,1.430000000000000000e+03,1.429000000000000000e+03,1.430000000000000000e+03,1.430000000000000000e+03,1.430000000000000000e+03,1.430000000000000000e+03,1.432000000000000000e+03,1.433000000000000000e+03,1.434000000000000000e+03,1.435000000000000000e+03,1.434000000000000000e+03,1.434000000000000000e+03,1.433000000000000000e+03,1.430000000000000000e+03,1.430000000000000000e+03,1.430000000000000000e+03,1.430000000000000000e+03,1.432000000000000000e+03,1.434000000000000000e+03,1.434000000000000000e+03,1.434000000000000000e+03,1.434000000000000000e+03,1.433000000000000000e+03,1.433000000000000000e+03,1.434000000000000000e+03,1.434000000000000000e+03,1.434000000000000000e+03,1.435000000000000000e+03,1.435000000000000000e+03,1.434000000000000000e+03,1.435000000000000000e+03,1.435000000000000000e+03,1.434000000000000000e+03,1.432000000000000000e+03,1.429000000000000000e+03,1.427000000000000000e+03,1.426000000000000000e+03,1.427000000000000000e+03,1.429000000000000000e+03,1.430000000000000000e+03,1.433000000000000000e+03,1.435000000000000000e+03,1.435000000000000000e+03,1.435000000000000000e+03,1.435000000000000000e+03,1.435000000000000000e+03,1.434000000000000000e+03,1.435000000000000000e+03,1.436000000000000000e+03,1.437000000000000000e+03,1.438000000000000000e+03,1.437000000000000000e+03,1.437000000000000000e+03,1.437000000000000000e+03,1.436000000000000000e+03,1.435000000000000000e+03,1.436000000000000000e+03,1.436000000000000000e+03,1.435000000000000000e+03,1.437000000000000000e+03,1.436000000000000000e+03,1.434000000000000000e+03,1.432000000000000000e+03,1.430000000000000000e+03,1.429000000000000000e+03,1.430000000000000000e+03,1.432000000000000000e+03,1.434000000000000000e+03,1.436000000000000000e+03,1.436000000000000000e+03,1.436000000000000000e+03,1.437000000000000000e+03,1.437000000000000000e+03,1.438000000000000000e+03,1.437000000000000000e+03,1.437000000000000000e+03,1.437000000000000000e+03,1.437000000000000000e+03,1.437000000000000000e+03,1.437000000000000000e+03,1.437000000000000000e+03,1.436000000000000000e+03,1.435000000000000000e+03,1.434000000000000000e+03,1.434000000000000000e+03,1.435000000000000000e+03,1.435000000000000000e+03,1.436000000000000000e+03,1.437000000000000000e+03,1.437000000000000000e+03,1.436000000000000000e+03,1.435000000000000000e+03,1.434000000000000000e+03,1.433000000000000000e+03,1.431000000000000000e+03,1.431000000000000000e+03,1.433000000000000000e+03,1.434000000000000000e+03,1.434000000000000000e+03,1.434000000000000000e+03,1.435000000000000000e+03,1.435000000000000000e+03
1.432000000000000000e+03,1.432000000000000000e+03,1.431000000000000000e+03,1.431000000000000000e+03,1.427000000000000000e+03,1.427000000000000000e+03,1.426000000000000000e+03,1.428000000000000000e+03,1.428000000000000000e+03,1.430000000000000000e+03,1.431000000000000000e+03,1.430000000000000000e+03,1.431000000000000000e+03,1.431000000000000000e+03,1.429000000000000000e+03,1.430000000000000000e+03,1.430000000000000000e+03,1.430000000000000000e+03,1.429000000000000000e+03,1.430000000000000000e+03,1.430000000000000000e+03,1.430000000000000000e+03,1.431000000000000000e+03,1.432000000000000000e+03,1.433000000000000000e+03,1.434000000000000000e+03,1.434000000000000000e+03,1.434000000000000000e+03,1.433000000000000000e+03,1.431000000000000000e+03,1.429000000000000000e+03,1.428000000000000000e+03,1.428000000000000000e+03,1.428000000000000000e+03,1.430000000000000000e+03,1.433000000000000000e+03,1.434000000000000000e+03,1.434000000000000000e+03,1.435000000000000000e+03,1.434000000000000000e+03,1.434000000000000000e+03,1.434000000000000000e+03,1.434000000000000000e+03,1.434000000000000000e+03,1.436000000000000000e+03,1.436000000000000000e+03,1.435000000000000000e+03,1.436000000000000000e+03,1.435000000000000000e+03,1.434000000000000000e+03,1.432000000000000000e+03,1.429000000000000000e+03,1.427000000000000000e+03,1.427000000000000000e+03,1.427000000000000000e+03,1.429000000000000000e+03,1.431000000000000000e+03,1.433000000000000000e+03,1.435000000000000000e+03,1.435000000000000000e+03,1.434000000000000000e+03,1.435000000000000000e+03,1.434000000000000000e+03,1.435000000000000000e+03,1.435000000000000000e+03,1.437000000000000000e+03,1.438000000000000000e+03,1.439000000000000000e+03,1.438000000000000000e+03,1.438000000000000000e+03,1.438000000000000000e+03,1.437000000000000000e+03,1.437000000000000000e+03,1.438000000000000000e+03,1.439000000000000000e+03,1.438000000000000000e+03,1.439000000000000000e+03,1.438000000000000000e+03,1.435000000000000000e+03,1.432000000000000000e+03,1.428000000000000000e+03,1.426000000000000000e+03,1.427000000000000000e+03,1.430000000000000000e+03,1.434000000000000000e+03,1.436000000000000000e+03,1.437000000000000000e+03,1.436000000000000000e+03,1.436000000000000000e+03,1.437000000000000000e+03,1.438000000000000000e+03,1.438000000000000000e+03,1.438000000000000000e+03,1.439000000000000000e+03,1.438000000000000000e+03,1.437000000000000000e+03,1.437000000000000000e+03,1.437000000000000000e+03,1.437000000000000000e+03,1.436000000000000000e+03,1.435000000000000000e+03,1.435000000000000000e+03,1.436000000000000000e+03,1.435000000000000000e+03,1.436000000000000000e+03,1.437000000000000000e+03,1.437000000000000000e+03,1.437000000000000000e+03,1.436000000000000000e+03,1.435000000000000000e+03,1.434000000000000000e+03,1.434000000000000000e+03,1.433000000000000000e+03,1.435000000000000000e+03,1.435000000000000000e+03,1.435000000000000000e+03,1.435000000000000000e+03,1.435000000000000000e+03,1.435000000000000000e+03
1.431000000000000000e+03,1.430000000000000000e+03,1.429000000000000000e+03,1.429000000000000000e+03,1.428000000000000000e+03,1.426000000000000000e+03,1.426000000000000000e+03,1.427000000000000000e+03,1.427000000000000000e+03,1.429000000000000000e+03,1.430000000000000000e+03,1.429000000000000000e+03,1.431000000000000000e+03,1.432000000000000000e+03,1.431000000000000000e+03,1.432000000000000000e+03,1.432000000000000000e+03,1.431000000000000000e+03,1.430000000000000000e+03,1.431000000000000000e+03,1.430000000000000000e+03,1.430000000000000000e+03,1.430000000000000000e+03,1.432000000000000000e+03,1.433000000000000000e+03,1.433000000000000000e+03,1.433000000000000000e+03,1.433000000000000000e+03,1.431000000000000000e+03,1.430000000000000000e+03,1.428000000000000000e+03,1.426000000000000000e+03,1.425000000000000000e+03,1.426000000000000000e+03,1.428000000000000000e+03,1.431000000000000000e+03,1.433000000000000000e+03,1.435000000000000000e+03,1.436000000000000000e+03,1.435000000000000000e+03,1.435000000000000000e+03,1.435000000000000000e+03,1.435000000000000000e+03,1.434000000000000000e+03,1.437000000000000000e+03,1.437000000000000000e+03,1.437000000000000000e+03,1.437000000000000000e+03,1.436000000000000000e+03,1.434000000000000000e+03,1.432000000000000000e+03,1.429000000000000000e+03,1.427000000000000000e+03,1.427000000000000000e+03,1.428000000000000000e+03,1.429000000000000000e+03,1.431000000000000000e+03,1.433000000000000000e+03,1.434000000000000000e+03,1.434000000000000000e+03,1.433000000000000000e+03,1.433000000000000000e+03,1.433000000000000000e+03,1.433000000000000000e+03,1.434000000000000000e+03,1.437000000000000000e+03,1.438000000000000000e+03,1.439000000000000000e+03,1.439000000000000000e+03,1.439000000000000000e+03,1.439000000000000000e+03,1.438000000000000000e+03,1.438000000000000000e+03,1.439000000000000000e+03,1.440000000000000000e+03,1.439000000000000000e+03,1.440000000000000000e+03,1.438000000000000000e+03,1.435000000000000000e+03,1.431000000000000000e+03,1.427000000000000000e+03,1.424000000000000000e+03,1.425000000000000000e+03,1.429000000000000000e+03,1.433000000000000000e+03,1.437000000000000000e+03,1.437000000000000000e+03,1.437000000000000000e+03,1.437000000000000000e+03,1.437000000000000000e+03,1.438000000000000000e+03,1.438000000000000000e+03,1.438000000000000000e+03,1.438000000000000000e+03,1.438000000000000000e+03,1.437000000000000000e+03,1.438000000000000000e+03,1.438000000000000000e+03,1.437000000000000000e+03,1.437000000000000000e+03,1.437000000000000000e+03,1.437000000000000000e+03,1.437000000000000000e+03,1.436000000000000000e+03,1.437000000000000000e+03,1.437000000000000000e+03,1.437000000000000000e+03,1.437000000000000000e+03,1.436000000000000000e+03,1.436000000000000000e+03,1.435000000000000000e+03,1.434000000000000000e+03,1.433000000000000000e+03,1.434000000000000000e+03,1.434000000000000000e+03,1.434000000000000000e+03,1.435000000000000000e+03,1.435000000000000000e+03,1.435000000000000000e+03
1.431000000000000000e+03,1.431000000000000000e+03,1.429000000000000000e+03,1.430000000000000000e+03,1.430000000000000000e+03,1.429000000000000000e+03,1.430000000000000000e+03,1.428000000000000000e+03,1.428000000000000000e+03,1.427000000000000000e+03,1.428000000000000000e+03,1.427000000000000000e+03,1.429000000000000000e+03,1.431000000000000000e+03,1.432000000000000000e+03,1.433000000000000000e+03,1.434000000000000000e+03,1.434000000000000000e+03,1.434000000000000000e+03,1.435000000000000000e+03,1.435000000000000000e+03,1.434000000000000000e+03,1.435000000000000000e+03,1.434000000000000000e+03,1.435000000000000000e+03,1.434000000000000000e+03,1.434000000000000000e+03,1.433000000000000000e+03,1.432000000000000000e+03,1.429000000000000000e+03,1.428000000000000000e+03,1.427000000000000000e+03,1.425000000000000000e+03,1.424000000000000000e+03,1.427000000000000000e+03,1.428000000000000000e+03,1.432000000000000000e+03,1.434000000000000000e+03,1.436000000000000000e+03,1.435000000000000000e+03,1.436000000000000000e+03,1.435000000000000000e+03,1.435000000000000000e+03,1.435000000000000000e+03,1.437000000000000000e+03,1.438000000000000000e+03,1.438000000000000000e+03,1.438000000000000000e+03,1.437000000000000000e+03,1.434000000000000000e+03,1.432000000000000000e+03,1.428000000000000000e+03,1.427000000000000000e+03,1.427000000000000000e+03,1.428000000000000000e+03,1.430000000000000000e+03,1.432000000000000000e+03,1.433000000000000000e+03,1.433000000000000000e+03,1.432000000000000000e+03,1.430000000000000000e+03,1.430000000000000000e+03,1.431000000000000000e+03,1.433000000000000000e+03,1.435000000000000000e+03,1.438000000000000000e+03,1.439000000000000000e+03,1.440000000000000000e+03,1.440000000000000000e+03,1.440000000000000000e+03,1.439000000000000000e+03,1.440000000000000000e+03,1.439000000000000000e+03,1.440000000000000000e+03,1.441000000000000000e+03,1.440000000000000000e+03,1.441000000000000000e+03,1.440000000000000000e+03,1.436000000000000000e+03,1.431000000000000000e+03,1.426000000000000000e+03,1.423000000000000000e+03,1.424000000000000000e+03,1.427000000000000000e+03,1.432000000000000000e+03,1.436000000000000000e+03,1.437000000000000000e+03,1.437000000000000000e+03,1.437000000000000000e+03,1.437000000000000000e+03,1.439000000000000000e+03,1.439000000000000000e+03,1.439000000000000000e+03,1.440000000000000000e+03,1.439000000000000000e+03,1.438000000000000000e+03,1.438000000000000000e+03,1.438000000000000000e+03,1.438000000000000000e+03,1.437000000000000000e+03,1.438000000000000000e+03,1.438000000000000000e+03,1.438000000000000000e+03,1.437000000000000000e+03,1.437000000000000000e+03,1.437000000000000000e+03,1.436000000000000000e+03,1.436000000000000000e+03,1.436000000000000000e+03,1.435000000000000000e+03,1.434000000000000000e+03,1.434000000000000000e+03,1.433000000000000000e+03,1.433000000000000000e+03,1.433000000000000000e+03,1.434000000000000000e+03,1.435000000000000000e+03,1.436000000000000000e+03,1.436000000000000000e+03
1.431000000000000000e+03,1.431000000000000000e+03,1.431000000000000000e+03,1.429000000000000000e+03,1.431000000000000000e+03,1.429000000000000000e+03,1.430000000000000000e+03,1.428000000000000000e+03,1.428000000000000000e+03,1.426000000000000000e+03,1.427000000000000000e+03,1.426000000000000000e+03,1.429000000000000000e+03,1.430000000000000000e+03,1.432000000000000000e+03,1.433000000000000000e+03,1.434000000000000000e+03,1.435000000000000000e+03,1.435000000000000000e+03,1.436000000000000000e+03,1.436000000000000000e+03,1.435000000000000000e+03,1.435000000000000000e+03,1.434000000000000000e+03,1.434000000000000000e+03,1.432000000000000000e+03,1.432000000000000000e+03,1.432000000000000000e+03,1.431000000000000000e+03,1.428000000000000000e+03,1.428000000000000000e+03,1.427000000000000000e+03,1.425000000000000000e+03,1.424000000000000000e+03,1.426000000000000000e+03,1.427000000000000000e+03,1.430000000000000000e+03,1.434000000000000000e+03,1.436000000000000000e+03,1.437000000000000000e+03,1.438000000000000000e+03,1.437000000000000000e+03,1.437000000000000000e+03,1.436000000000000000e+03,1.437000000000000000e+03,1.438000000000000000e+03,1.439000000000000000e+03,1.439000000000000000e+03,1.437000000000000000e+03,1.434000000000000000e+03,1.431000000000000000e+03,1.428000000000000000e+03,1.426000000000000000e+03,1.427000000000000000e+03,1.429000000000000000e+03,1.431000000000000000e+03,1.434000000000000000e+03,1.436000000000000000e+03,1.435000000000000000e+03,1.434000000000000000e+03,1.432000000000000000e+03,1.430000000000000000e+03,1.431000000000000000e+03,1.433000000000000000e+03,1.435000000000000000e+03,1.438000000000000000e+03,1.441000000000000000e+03,1.442000000000000000e+03,1.442000000000000000e+03,1.442000000000000000e+03,1.441000000000000000e+03,1.441000000000000000e+03,1.440000000000000000e+03,1.441000000000000000e+03,1.442000000000000000e+03,1.441000000000000000e+03,1.441000000000000000e+03,1.440000000000000000e+03,1.436000000000000000e+03,1.431000000000000000e+03,1.427000000000000000e+03,1.424000000000000000e+03,1.425000000000000000e+03,1.428000000000000000e+03,1.431000000000000000e+03,1.435000000000000000e+03,1.436000000000000000e+03,1.437000000000000000e+03,1.437000000000000000e+03,1.439000000000000000e+03,1.440000000000000000e+03,1.440000000000000000e+03,1.440000000000000000e+03,1.440000000000000000e+03,1.439000000000000000e+03,1.438000000000000000e+03,1.438000000000000000e+03,1.439000000000000000e+03,1.438000000000000000e+03,1.438000000000000000e+03,1.438000000000000000e+03,1.439000000000000000e+03,1.438000000000000000e+03,1.437000000000000000e+03,1.437000000000000000e+03,1.436000000000000000e+03,1.436000000000000000e+03,1.435000000000000000e+03,1.436000000000000000e+03,1.435000000000000000e+03,1.433000000000000000e+03,1.433000000000000000e+03,1.432000000000000000e+03,1.433000000000000000e+03,1.433000000000000000e+03,1.435000000000000000e+03,1.436000000000000000e+03,1.436000000000000000e+03,1.437000000000000000e+03
1.431000000000000000e+03,1.431000000000000000e+03,1.430000000000000000e+03,1.430000000000000000e+03,1.432000000000000000e+03,1.432000000000000000e+03,1.435000000000000000e+03,1.430000000000000000e+03,1.430000000000000000e+03,1.426000000000000000e+03,1.427000000000000000e+03,1.425000000000000000e+03,1.429000000000000000e+03,1.429000000000000000e+03,1.432000000000000000e+03,1.434000000000000000e+03,1.436000000000000000e+03,1.435000000000000000e+03,1.436000000000000000e+03,1.437000000000000000e+03,1.437000000000000000e+03,1.436000000000000000e+03,1.437000000000000000e+03,1.436000000000000000e+03,1.436000000000000000e+03,1.432000000000000000e+03,1.432000000000000000e+03,1.432000000000000000e+03,1.430000000000000000e+03,1.428000000000000000e+03,1.428000000000000000e+03,1.426000000000000000e+03,1.424000000000000000e+03,1.424000000000000000e+03,1.424000000000000000e+03,1.427000000000000000e+03,1.429000000000000000e+03,1.433000000000000000e+03,1.435000000000000000e+03,1.438000000000000000e+03,1.438000000000000000e+03,1.438000000000000000e+03,1.439000000000000000e+03,1.438000000000000000e+03,1.438000000000000000e+03,1.439000000000000000e+03,1.439000000000000000e+03,1.438000000000000000e+03,1.437000000000000000e+03,1.434000000000000000e+03,1.430000000000000000e+03,1.428000000000000000e+03,1.427000000000000000e+03,1.427000000000000000e+03,1.430000000000000000e+03,1.432000000000000000e+03,1.435000000000000000e+03,1.436000000000000000e+03,1.435000000000000000e+03,1.433000000000000000e+03,1.431000000000000000e+03,1.429000000000000000e+03,1.430000000000000000e+03,1.433000000000000000e+03,1.436000000000000000e+03,1.440000000000000000e+03,1.442000000000000000e+03,1.443000000000000000e+03,1.443000000000000000e+03,1.443000000000000000e+03,1.443000000000000000e+03,1.442000000000000000e+03,1.441000000000000000e+03,1.441000000000000000e+03,1.442000000000000000e+03,1.441000000000000000e+03,1.441000000000000000e+03,1.439000000000000000e+03,1.435000000000000000e+03,1.430000000000000000e+03,1.427000000000000000e+03,1.425000000000000000e+03,1.426000000000000000e+03,1.429000000000000000e+03,1.432000000000000000e+03,1.435000000000000000e+03,1.435000000000000000e+03,1.438000000000000000e+03,1.438000000000000000e+03,1.439000000000000000e+03,1.441000000000000000e+03,1.442000000000000000e+03,1.441000000000000000e+03,1.441000000000000000e+03,1.440000000000000000e+03,1.439000000000000000e+03,1.439000000000000000e+03,1.439000000000000000e+03,1.439000000000000000e+03,1.439000000000000000e+03,1.439000000000000000e+03,1.439000000000000000e+03,1.438000000000000000e+03,1.437000000000000000e+03,1.436000000000000000e+03,1.434000000000000000e+03,1.433000000000000000e+03,1.433000000000000000e+03,1.433000000000000000e+03,1.432000000000000000e+03,1.432000000000000000e+03,1.432000000000000000e+03,1.432000000000000000e+03,1.432000000000000000e+03,1.432000000000000000e+03,1.435000000000000000e+03,1.436000000000000000e+03,1.437000000000000000e+03,1.437000000000000000e+03
1.433000000000000000e+03,1.432000000000000000e+03,1.432000000000000000e+03,1.431000000000000000e+03,1.434000000000000000e+03,1.434000000000000000e+03,1.435000000000000000e+03,1.430000000000000000e+03,1.431000000000000000e+03,1.427000000000000000e+03,1.427000000000000000e+03,1.427000000000000000e+03,1.431000000000000000e+03,1.432000000000000000e+03,1.434000000000000000e+03,1.436000000000000000e+03,1.437000000000000000e+03,1.438000000000000000e+03,1.438000000000000000e+03,1.438000000000000000e+03,1.439000000000000000e+03,1.438000000000000000e+03,1.439000000000000000e+03,1.437000000000000000e+03,1.435000000000000000e+03,1.433000000000000000e+03,1.433000000000000000e+03,1.433000000000000000e+03,1.431000000000000000e+03,1.430000000000000000e+03,1.430000000000000000e+03,1.429000000000000000e+03,1.427000000000000000e+03,1.427000000000000000e+03,1.427000000000000000e+03,1.429000000000000000e+03,1.430000000000000000e+03,1.434000000000000000e+03,1.436000000000000000e+03,1.439000000000000000e+03,1.439000000000000000e+03,1.439000000000000000e+03,1.439000000000000000e+03,1.438000000000000000e+03,1.438000000000000000e+03,1.439000000000000000e+03,1.440000000000000000e+03,1.440000000000000000e+03,1.440000000000000000e+03,1.437000000000000000e+03,1.432000000000000000e+03,1.428000000000000000e+03,1.426000000000000000e+03,1.427000000000000000e+03,1.429000000000000000e+03,1.433000000000000000e+03,1.436000000000000000e+03,1.436000000000000000e+03,1.436000000000000000e+03,1.434000000000000000e+03,1.431000000000000000e+03,1.429000000000000000e+03,1.431000000000000000e+03,1.433000000000000000e+03,1.436000000000000000e+03,1.440000000000000000e+03,1.443000000000000000e+03,1.444000000000000000e+03,1.445000000000000000e+03,1.444000000000000000e+03,1.443000000000000000e+03,1.443000000000000000e+03,1.441000000000000000e+03,1.441000000000000000e+03,1.441000000000000000e+03,1.441000000000000000e+03,1.440000000000000000e+03,1.438000000000000000e+03,1.435000000000000000e+03,1.431000000000000000e+03,1.428000000000000000e+03,1.427000000000000000e+03,1.428000000000000000e+03,1.431000000000000000e+03,1.434000000000000000e+03,1.434000000000000000e+03,1.434000000000000000e+03,1.437000000000000000e+03,1.439000000000000000e+03,1.440000000000000000e+03,1.441000000000000000e+03,1.442000000000000000e+03,1.441000000000000000e+03,1.440000000000000000e+03,1.440000000000000000e+03,1.440000000000000000e+03,1.440000000000000000e+03,1.440000000000000000e+03,1.440000000000000000e+03,1.440000000000000000e+03,1.440000000000000000e+03,1.440000000000000000e+03,1.439000000000000000e+03,1.437000000000000000e+03,1.436000000000000000e+03,1.434000000000000000e+03,1.433000000000000000e+03,1.433000000000000000e+03,1.434000000000000000e+03,1.433000000000000000e+03,1.432000000000000000e+03,1.432000000000000000e+03,1.432000000000000000e+03,1.433000000000000000e+03,1.434000000000000000e+03,1.437000000000000000e+03,1.438000000000000000e+03,1.438000000000000000e+03,1.438000000000000000e+03
1.434000000000000000e+03,1.433000000000000000e+03,1.432000000000000000e+03,1.431000000000000000e+03,1.434000000000000000e+03,1.435000000000000000e+03,1.436000000000000000e+03,1.432000000000000000e+03,1.433000000000000000e+03,1.427000000000000000e+03,1.429000000000000000e+03,1.429000000000000000e+03,1.433000000000000000e+03,1.434000000000000000e+03,1.437000000000000000e+03,1.437000000000000000e+03,1.439000000000000000e+03,1.439000000000000000e+03,1.439000000000000000e+03,1.439000000000000000e+03,1.439000000000000000e+03,1.440000000000000000e+03,1.439000000000000000e+03,1.439000000000000000e+03,1.438000000000000000e+03,1.435000000000000000e+03,1.434000000000000000e+03,1.434000000000000000e+03,1.433000000000000000e+03,1.433000000000000000e+03,1.433000000000000000e+03,1.432000000000000000e+03,1.430000000000000000e+03,1.430000000000000000e+03,1.430000000000000000e+03,1.432000000000000000e+03,1.432000000000000000e+03,1.436000000000000000e+03,1.438000000000000000e+03,1.440000000000000000e+03,1.440000000000000000e+03,1.441000000000000000e+03,1.440000000000000000e+03,1.439000000000000000e+03,1.439000000000000000e+03,1.440000000000000000e+03,1.440000000000000000e+03,1.441000000000000000e+03,1.441000000000000000e+03,1.439000000000000000e+03,1.435000000000000000e+03,1.432000000000000000e+03,1.429000000000000000e+03,1.429000000000000000e+03,1.431000000000000000e+03,1.433000000000000000e+03,1.435000000000000000e+03,1.436000000000000000e+03,1.435000000000000000e+03,1.433000000000000000e+03,1.431000000000000000e+03,1.429000000000000000e+03,1.430000000000000000e+03,1.433000000000000000e+03,1.437000000000000000e+03,1.441000000000000000e+03,1.444000000000000000e+03,1.445000000000000000e+03,1.445000000000000000e+03,1.445000000000000000e+03,1.444000000000000000e+03,1.443000000000000000e+03,1.442000000000000000e+03,1.441000000000000000e+03,1.440000000000000000e+03,1.440000000000000000e+03,1.439000000000000000e+03,1.438000000000000000e+03,1.436000000000000000e+03,1.433000000000000000e+03,1.431000000000000000e+03,1.430000000000000000e+03,1.430000000000000000e+03,1.432000000000000000e+03,1.434000000000000000e+03,1.434000000000000000e+03,1.434000000000000000e+03,1.437000000000000000e+03,1.439000000000000000e+03,1.440000000000000000e+03,1.442000000000000000e+03,1.442000000000000000e+03,1.442000000000000000e+03,1.442000000000000000e+03,1.442000000000000000e+03,1.441000000000000000e+03,1.441000000000000000e+03,1.441000000000000000e+03,1.441000000000000000e+03,1.440000000000000000e+03,1.440000000000000000e+03,1.440000000000000000e+03,1.439000000000000000e+03,1.438000000000000000e+03,1.437000000000000000e+03,1.435000000000000000e+03,1.434000000000000000e+03,1.434000000000000000e+03,1.435000000000000000e+03,1.435000000000000000e+03,1.434000000000000000e+03,1.435000000000000000e+03,1.436000000000000000e+03,1.436000000000000000e+03,1.437000000000000000e+03,1.439000000000000000e+03,1.439000000000000000e+03,1.439000000000000000e+03,1.439000000000000000e+03
1.433000000000000000e+03,1.434000000000000000e+03,1.432000000000000000e+03,1.431000000000000000e+03,1.435000000000000000e+03,1.436000000000000000e+03,1.436000000000000000e+03,1.432000000000000000e+03,1.433000000000000000e+03,1.429000000000000000e+03,1.432000000000000000e+03,1.434000000000000000e+03,1.437000000000000000e+03,1.438000000000000000e+03,1.438000000000000000e+03,1.439000000000000000e+03,1.438000000000000000e+03,1.437000000000000000e+03,1.437000000000000000e+03,1.438000000000000000e+03,1.438000000000000000e+03,1.439000000000000000e+03,1.439000000000000000e+03,1.438000000000000000e+03,1.437000000000000000e+03,1.435000000000000000e+03,1.435000000000000000e+03,1.435000000000000000e+03,1.435000000000000000e+03,1.435000000000000000e+03,1.434000000000000000e+03,1.434000000000000000e+03,1.433000000000000000e+03,1.434000000000000000e+03,1.433000000000000000e+03,1.435000000000000000e+03,1.435000000000000000e+03,1.437000000000000000e+03,1.439000000000000000e+03,1.441000000000000000e+03,1.441000000000000000e+03,1.441000000000000000e+03,1.440000000000000000e+03,1.439000000000000000e+03,1.439000000000000000e+03,1.440000000000000000e+03,1.440000000000000000e+03,1.440000000000000000e+03,1.441000000000000000e+03,1.438000000000000000e+03,1.435000000000000000e+03,1.433000000000000000e+03,1.430000000000000000e+03,1.430000000000000000e+03,1.431000000000000000e+03,1.432000000000000000e+03,1.433000000000000000e+03,1.434000000000000000e+03,1.434000000000000000e+03,1.433000000000000000e+03,1.432000000000000000e+03,1.431000000000000000e+03,1.433000000000000000e+03,1.435000000000000000e+03,1.438000000000000000e+03,1.442000000000000000e+03,1.444000000000000000e+03,1.445000000000000000e+03,1.445000000000000000e+03,1.445000000000000000e+03,1.444000000000000000e+03,1.444000000000000000e+03,1.442000000000000000e+03,1.441000000000000000e+03,1.440000000000000000e+03,1.440000000000000000e+03,1.439000000000000000e+03,1.437000000000000000e+03,1.435000000000000000e+03,1.433000000000000000e+03,1.431000000000000000e+03,1.431000000000000000e+03,1.432000000000000000e+03,1.432000000000000000e+03,1.433000000000000000e+03,1.433000000000000000e+03,1.434000000000000000e+03,1.436000000000000000e+03,1.439000000000000000e+03,1.439000000000000000e+03,1.441000000000000000e+03,1.441000000000000000e+03,1.440000000000000000e+03,1.441000000000000000e+03,1.442000000000000000e+03,1.442000000000000000e+03,1.442000000000000000e+03,1.443000000000000000e+03,1.441000000000000000e+03,1.441000000000000000e+03,1.441000000000000000e+03,1.441000000000000000e+03,1.440000000000000000e+03,1.440000000000000000e+03,1.439000000000000000e+03,1.437000000000000000e+03,1.436000000000000000e+03,1.436000000000000000e+03,1.437000000000000000e+03,1.437000000000000000e+03,1.438000000000000000e+03,1.439000000000000000e+03,1.439000000000000000e+03,1.439000000000000000e+03,1.440000000000000000e+03,1.440000000000000000e+03,1.440000000000000000e+03,1.440000000000000000e+03,1.440000000000000000e+03
1.434000000000000000e+03,1.434000000000000000e+03,1.433000000000000000e+03,1.433000000000000000e+03,1.435000000000000000e+03,1.436000000000000000e+03,1.437000000000000000e+03,1.432000000000000000e+03,1.433000000000000000e+03,1.432000000000000000e+03,1.433000000000000000e+03,1.434000000000000000e+03,1.439000000000000000e+03,1.439000000000000000e+03,1.440000000000000000e+03,1.441000000000000000e+03,1.440000000000000000e+03,1.438000000000000000e+03,1.438000000000000000e+03,1.438000000000000000e+03,1.437000000000000000e+03,1.439000000000000000e+03,1.440000000000000000e+03,1.439000000000000000e+03,1.438000000000000000e+03,1.438000000000000000e+03,1.437000000000000000e+03,1.436000000000000000e+03,1.437000000000000000e+03,1.437000000000000000e+03,1.436000000000000000e+03,1.436000000000000000e+03,1.436000000000000000e+03,1.437000000000000000e+03,1.437000000000000000e+03,1.438000000000000000e+03,1.438000000000000000e+03,1.438000000000000000e+03,1.441000000000000000e+03,1.440000000000000000e+03,1.440000000000000000e+03,1.440000000000000000e+03,1.441000000000000000e+03,1.439000000000000000e+03,1.440000000000000000e+03,1.440000000000000000e+03,1.441000000000000000e+03,1.440000000000000000e+03,1.440000000000000000e+03,1.438000000000000000e+03,1.435000000000000000e+03,1.433000000000000000e+03,1.433000000000000000e+03,1.432000000000000000e+03,1.432000000000000000e+03,1.434000000000000000e+03,1.433000000000000000e+03,1.432000000000000000e+03,1.432000000000000000e+03,1.432000000000000000e+03,1.430000000000000000e+03,1.431000000000000000e+03,1.433000000000000000e+03,1.436000000000000000e+03,1.439000000000000000e+03,1.443000000000000000e+03,1.445000000000000000e+03,1.446000000000000000e+03,1.445000000000000000e+03,1.445000000000000000e+03,1.443000000000000000e+03,1.444000000000000000e+03,1.442000000000000000e+03,1.441000000000000000e+03,1.440000000000000000e+03,1.440000000000000000e+03,1.439000000000000000e+03,1.438000000000000000e+03,1.437000000000000000e+03,1.434000000000000000e+03,1.432000000000000000e+03,1.431000000000000000e+03,1.431000000000000000e+03,1.432000000000000000e+03,1.434000000000000000e+03,1.434000000000000000e+03,1.435000000000000000e+03,1.437000000000000000e+03,1.439000000000000000e+03,1.439000000000000000e+03,1.441000000000000000e+03,1.441000000000000000e+03,1.441000000000000000e+03,1.441000000000000000e+03,1.442000000000000000e+03,1.443000000000000000e+03,1.443000000000000000e+03,1.443000000000000000e+03,1.442000000000000000e+03,1.442000000000000000e+03,1.442000000000000000e+03,1.442000000000000000e+03,1.441000000000000000e+03,1.441000000000000000e+03,1.440000000000000000e+03,1.439000000000000000e+03,1.439000000000000000e+03,1.439000000000000000e+03,1.439000000000000000e+03,1.440000000000000000e+03,1.440000000000000000e+03,1.442000000000000000e+03,1.442000000000000000e+03,1.442000000000000000e+03,1.441000000000000000e+03,1.441000000000000000e+03,1.441000000000000000e+03,1.441000000000000000e+03,1.440000000000000000e+03
1.438000000000000000e+03,1.436000000000000000e+03,1.435000000000000000e+03,1.436000000000000000e+03,1.438000000000000000e+03,1.437000000000000000e+03,1.437000000000000000e+03,1.434000000000000000e+03,1.434000000000000000e+03,1.431000000000000000e+03,1.435000000000000000e+03,1.436000000000000000e+03,1.439000000000000000e+03,1.441000000000000000e+03,1.441000000000000000e+03,1.441000000000000000e+03,1.440000000000000000e+03,1.440000000000000000e+03,1.439000000000000000e+03,1.441000000000000000e+03,1.442000000000000000e+03,1.442000000000000000e+03,1.442000000000000000e+03,1.441000000000000000e+03,1.440000000000000000e+03,1.440000000000000000e+03,1.440000000000000000e+03,1.439000000000000000e+03,1.439000000000000000e+03,1.439000000000000000e+03,1.438000000000000000e+03,1.437000000000000000e+03,1.438000000000000000e+03,1.439000000000000000e+03,1.441000000000000000e+03,1.440000000000000000e+03,1.440000000000000000e+03,1.441000000000000000e+03,1.443000000000000000e+03,1.442000000000000000e+03,1.441000000000000000e+03,1.440000000000000000e+03,1.440000000000000000e+03,1.438000000000000000e+03,1.440000000000000000e+03,1.440000000000000000e+03,1.441000000000000000e+03,1.440000000000000000e+03,1.439000000000000000e+03,1.437000000000000000e+03,1.434000000000000000e+03,1.433000000000000000e+03,1.433000000000000000e+03,1.433000000000000000e+03,1.433000000000000000e+03,1.434000000000000000e+03,1.433000000000000000e+03,1.433000000000000000e+03,1.433000000000000000e+03,1.433000000000000000e+03,1.431000000000000000e+03,1.433000000000000000e+03,1.435000000000000000e+03,1.438000000000000000e+03,1.442000000000000000e+03,1.445000000000000000e+03,1.446000000000000000e+03,1.446000000000000000e+03,1.446000000000000000e+03,1.445000000000000000e+03,1.443000000000000000e+03,1.444000000000000000e+03,1.443000000000000000e+03,1.443000000000000000e+03,1.441000000000000000e+03,1.442000000000000000e+03,1.441000000000000000e+03,1.440000000000000000e+03,1.439000000000000000e+03,1.437000000000000000e+03,1.436000000000000000e+03,1.435000000000000000e+03,1.434000000000000000e+03,1.434000000000000000e+03,1.436000000000000000e+03,1.435000000000000000e+03,1.437000000000000000e+03,1.439000000000000000e+03,1.441000000000000000e+03,1.440000000000000000e+03,1.441000000000000000e+03,1.441000000000000000e+03,1.441000000000000000e+03,1.441000000000000000e+03,1.443000000000000000e+03,1.443000000000000000e+03,1.444000000000000000e+03,1.444000000000000000e+03,1.443000000000000000e+03,1.443000000000000000e+03,1.443000000000000000e+03,1.443000000000000000e+03,1.442000000000000000e+03,1.443000000000000000e+03,1.442000000000000000e+03,1.442000000000000000e+03,1.442000000000000000e+03,1.442000000000000000e+03,1.441000000000000000e+03,1.442000000000000000e+03,1.442000000000000000e+03,1.443000000000000000e+03,1.443000000000000000e+03,1.443000000000000000e+03,1.443000000000000000e+03,1.442000000000000000e+03,1.441000000000000000e+03,1.441000000000000000e+03,1.441000000000000000e+03
1.438000000000000000e+03,1.437000000000000000e+03,1.434000000000000000e+03,1.435000000000000000e+03,1.437000000000000000e+03,1.437000000000000000e+03,1.438000000000000000e+03,1.436000000000000000e+03,1.438000000000000000e+03,1.435000000000000000e+03,1.436000000000000000e+03,1.437000000000000000e+03,1.438000000000000000e+03,1.439000000000000000e+03,1.441000000000000000e+03,1.440000000000000000e+03,1.439000000000000000e+03,1.439000000000000000e+03,1.438000000000000000e+03,1.440000000000000000e+03,1.441000000000000000e+03,1.441000000000000000e+03,1.443000000000000000e+03,1.442000000000000000e+03,1.442000000000000000e+03,1.440000000000000000e+03,1.441000000000000000e+03,1.440000000000000000e+03,1.440000000000000000e+03,1.439000000000000000e+03,1.440000000000000000e+03,1.438000000000000000e+03,1.439000000000000000e+03,1.439000000000000000e+03,1.440000000000000000e+03,1.440000000000000000e+03,1.442000000000000000e+03,1.441000000000000000e+03,1.442000000000000000e+03,1.442000000000000000e+03,1.442000000000000000e+03,1.441000000000000000e+03,1.441000000000000000e+03,1.440000000000000000e+03,1.441000000000000000e+03,1.441000000000000000e+03,1.441000000000000000e+03,1.439000000000000000e+03,1.439000000000000000e+03,1.436000000000000000e+03,1.435000000000000000e+03,1.434000000000000000e+03,1.434000000000000000e+03,1.434000000000000000e+03,1.434000000000000000e+03,1.435000000000000000e+03,1.434000000000000000e+03,1.436000000000000000e+03,1.435000000000000000e+03,1.436000000000000000e+03,1.434000000000000000e+03,1.436000000000000000e+03,1.436000000000000000e+03,1.439000000000000000e+03,1.443000000000000000e+03,1.446000000000000000e+03,1.446000000000000000e+03,1.447000000000000000e+03,1.447000000000000000e+03,1.445000000000000000e+03,1.444000000000000000e+03,1.444000000000000000e+03,1.443000000000000000e+03,1.443000000000000000e+03,1.443000000000000000e+03,1.444000000000000000e+03,1.443000000000000000e+03,1.443000000000000000e+03,1.442000000000000000e+03,1.440000000000000000e+03,1.439000000000000000e+03,1.437000000000000000e+03,1.437000000000000000e+03,1.437000000000000000e+03,1.438000000000000000e+03,1.439000000000000000e+03,1.441000000000000000e+03,1.442000000000000000e+03,1.442000000000000000e+03,1.441000000000000000e+03,1.442000000000000000e+03,1.442000000000000000e+03,1.442000000000000000e+03,1.443000000000000000e+03,1.444000000000000000e+03,1.445000000000000000e+03,1.445000000000000000e+03,1.445000000000000000e+03,1.444000000000000000e+03,1.444000000000000000e+03,1.444000000000000000e+03,1.444000000000000000e+03,1.443000000000000000e+03,1.444000000000000000e+03,1.444000000000000000e+03,1.443000000000000000e+03,1.443000000000000000e+03,1.443000000000000000e+03,1.442000000000000000e+03,1.442000000000000000e+03,1.443000000000000000e+03,1.444000000000000000e+03,1.444000000000000000e+03,1.444000000000000000e+03,1.444000000000000000e+03,1.443000000000000000e+03,1.442000000000000000e+03,1.442000000000000000e+03,1.442000000000000000e+03
1.436000000000000000e+03,1.437000000000000000e+03,1.435000000000000000e+03,1.435000000000000000e+03,1.438000000000000000e+03,1.439000000000000000e+03,1.440000000000000000e+03,1.440000000000000000e+03,1.441000000000000000e+03,1.440000000000000000e+03,1.440000000000000000e+03,1.439000000000000000e+03,1.440000000000000000e+03,1.441000000000000000e+03,1.440000000000000000e+03,1.439000000000000000e+03,1.439000000000000000e+03,1.439000000000000000e+03,1.439000000000000000e+03,1.441000000000000000e+03,1.444000000000000000e+03,1.443000000000000000e+03,1.445000000000000000e+03,1.442000000000000000e+03,1.442000000000000000e+03,1.441000000000000000e+03,1.443000000000000000e+03,1.442000000000000000e+03,1.442000000000000000e+03,1.441000000000000000e+03,1.441000000000000000e+03,1.439000000000000000e+03,1.440000000000000000e+03,1.440000000000000000e+03,1.440000000000000000e+03,1.440000000000000000e+03,1.442000000000000000e+03,1.442000000000000000e+03,1.443000000000000000e+03,1.444000000000000000e+03,1.443000000000000000e+03,1.441000000000000000e+03,1.441000000000000000e+03,1.440000000000000000e+03,1.441000000000000000e+03,1.441000000000000000e+03,1.441000000000000000e+03,1.439000000000000000e+03,1.439000000000000000e+03,1.436000000000000000e+03,1.434000000000000000e+03,1.434000000000000000e+03,1.434000000000000000e+03,1.434000000000000000e+03,1.434000000000000000e+03,1.437000000000000000e+03,1.436000000000000000e+03,1.439000000000000000e+03,1.439000000000000000e+03,1.441000000000000000e+03,1.439000000000000000e+03,1.440000000000000000e+03,1.440000000000000000e+03,1.442000000000000000e+03,1.445000000000000000e+03,1.447000000000000000e+03,1.447000000000000000e+03,1.448000000000000000e+03,1.448000000000000000e+03,1.446000000000000000e+03,1.445000000000000000e+03,1.446000000000000000e+03,1.445000000000000000e+03,1.444000000000000000e+03,1.444000000000000000e+03,1.445000000000000000e+03,1.444000000000000000e+03,1.445000000000000000e+03,1.444000000000000000e+03,1.443000000000000000e+03,1.442000000000000000e+03,1.441000000000000000e+03,1.440000000000000000e+03,1.440000000000000000e+03,1.441000000000000000e+03,1.441000000000000000e+03,1.443000000000000000e+03,1.444000000000000000e+03,1.444000000000000000e+03,1.444000000000000000e+03,1.444000000000000000e+03,1.444000000000000000e+03,1.444000000000000000e+03,1.443000000000000000e+03,1.444000000000000000e+03,1.444000000000000000e+03,1.445000000000000000e+03,1.445000000000000000e+03,1.445000000000000000e+03,1.444000000000000000e+03,1.444000000000000000e+03,1.443000000000000000e+03,1.443000000000000000e+03,1.444000000000000000e+03,1.444000000000000000e+03,1.444000000000000000e+03,1.444000000000000000e+03,1.444000000000000000e+03,1.443000000000000000e+03,1.443000000000000000e+03,1.443000000000000000e+03,1.444000000000000000e+03,1.444000000000000000e+03,1.444000000000000000e+03,1.444000000000000000e+03,1.444000000000000000e+03,1.443000000000000000e+03,1.442000000000000000e+03,1.442000000000000000e+03
1.439000000000000000e+03,1.440000000000000000e+03,1.437000000000000000e+03,1.437000000000000000e+03,1.439000000000000000e+03,1.440000000000000000e+03,1.441000000000000000e+03,1.443000000000000000e+03,1.443000000000000000e+03,1.443000000000000000e+03,1.441000000000000000e+03,1.441000000000000000e+03,1.440000000000000000e+03,1.440000000000000000e+03,1.440000000000000000e+03,1.441000000000000000e+03,1.440000000000000000e+03,1.441000000000000000e+03,1.441000000000000000e+03,1.443000000000000000e+03,1.445000000000000000e+03,1.445000000000000000e+03,1.447000000000000000e+03,1.445000000000000000e+03,1.445000000000000000e+03,1.444000000000000000e+03,1.445000000000000000e+03,1.442000000000000000e+03,1.443000000000000000e+03,1.443000000000000000e+03,1.443000000000000000e+03,1.443000000000000000e+03,1.442000000000000000e+03,1.442000000000000000e+03,1.442000000000000000e+03,1.441000000000000000e+03,1.442000000000000000e+03,1.442000000000000000e+03,1.443000000000000000e+03,1.443000000000000000e+03,1.443000000000000000e+03,1.443000000000000000e+03,1.443000000000000000e+03,1.443000000000000000e+03,1.443000000000000000e+03,1.443000000000000000e+03,1.442000000000000000e+03,1.442000000000000000e+03,1.441000000000000000e+03,1.440000000000000000e+03,1.438000000000000000e+03,1.436000000000000000e+03,1.434000000000000000e+03,1.435000000000000000e+03,1.435000000000000000e+03,1.438000000000000000e+03,1.439000000000000000e+03,1.442000000000000000e+03,1.443000000000000000e+03,1.443000000000000000e+03,1.441000000000000000e+03,1.442000000000000000e+03,1.442000000000000000e+03,1.443000000000000000e+03,1.446000000000000000e+03,1.448000000000000000e+03,1.448000000000000000e+03,1.448000000000000000e+03,1.448000000000000000e+03,1.446000000000000000e+03,1.446000000000000000e+03,1.446000000000000000e+03,1.446000000000000000e+03,1.445000000000000000e+03,1.445000000000000000e+03,1.446000000000000000e+03,1.446000000000000000e+03,1.446000000000000000e+03,1.445000000000000000e+03,1.445000000000000000e+03,1.445000000000000000e+03,1.445000000000000000e+03,1.443000000000000000e+03,1.444000000000000000e+03,1.445000000000000000e+03,1.444000000000000000e+03,1.445000000000000000e+03,1.446000000000000000e+03,1.446000000000000000e+03,1.446000000000000000e+03,1.446000000000000000e+03,1.445000000000000000e+03,1.445000000000000000e+03,1.444000000000000000e+03,1.444000000000000000e+03,1.445000000000000000e+03,1.446000000000000000e+03,1.446000000000000000e+03,1.446000000000000000e+03,1.445000000000000000e+03,1.445000000000000000e+03,1.444000000000000000e+03,1.444000000000000000e+03,1.445000000000000000e+03,1.445000000000000000e+03,1.445000000000000000e+03,1.445000000000000000e+03,1.445000000000000000e+03,1.444000000000000000e+03,1.444000000000000000e+03,1.444000000000000000e+03,1.445000000000000000e+03,1.445000000000000000e+03,1.445000000000000000e+03,1.445000000000000000e+03,1.444000000000000000e+03,1.443000000000000000e+03,1.442000000000000000e+03,1.442000000000000000e+03
1.440000000000000000e+03,1.440000000000000000e+03,1.435000000000000000e+03,1.438000000000000000e+03,1.438000000000000000e+03,1.440000000000000000e+03,1.441000000000000000e+03,1.444000000000000000e+03,1.445000000000000000e+03,1.443000000000000000e+03,1.443000000000000000e+03,1.442000000000000000e+03,1.441000000000000000e+03,1.441000000000000000e+03,1.441000000000000000e+03,1.442000000000000000e+03,1.440000000000000000e+03,1.441000000000000000e+03,1.441000000000000000e+03,1.444000000000000000e+03,1.445000000000000000e+03,1.447000000000000000e+03,1.446000000000000000e+03,1.446000000000000000e+03,1.446000000000000000e+03,1.444000000000000000e+03,1.445000000000000000e+03,1.444000000000000000e+03,1.444000000000000000e+03,1.443000000000000000e+03,1.444000000000000000e+03,1.444000000000000000e+03,1.442000000000000000e+03,1.443000000000000000e+03,1.442000000000000000e+03,1.441000000000000000e+03,1.442000000000000000e+03,1.442000000000000000e+03,1.443000000000000000e+03,1.443000000000000000e+03,1.444000000000000000e+03,1.444000000000000000e+03,1.445000000000000000e+03,1.445000000000000000e+03,1.444000000000000000e+03,1.444000000000000000e+03,1.444000000000000000e+03,1.443000000000000000e+03,1.444000000000000000e+03,1.443000000000000000e+03,1.441000000000000000e+03,1.439000000000000000e+03,1.436000000000000000e+03,1.436000000000000000e+03,1.437000000000000000e+03,1.439000000000000000e+03,1.441000000000000000e+03,1.445000000000000000e+03,1.446000000000000000e+03,1.446000000000000000e+03,1.446000000000000000e+03,1.445000000000000000e+03,1.444000000000000000e+03,1.445000000000000000e+03,1.447000000000000000e+03,1.448000000000000000e+03,1.447000000000000000e+03,1.447000000000000000e+03,1.448000000000000000e+03,1.447000000000000000e+03,1.447000000000000000e+03,1.448000000000000000e+03,1.448000000000000000e+03,1.447000000000000000e+03,1.446000000000000000e+03,1.446000000000000000e+03,1.446000000000000000e+03,1.446000000000000000e+03,1.446000000000000000e+03,1.447000000000000000e+03,1.448000000000000000e+03,1.448000000000000000e+03,1.447000000000000000e+03,1.447000000000000000e+03,1.446000000000000000e+03,1.445000000000000000e+03,1.446000000000000000e+03,1.447000000000000000e+03,1.447000000000000000e+03,1.447000000000000000e+03,1.448000000000000000e+03,1.446000000000000000e+03,1.445000000000000000e+03,1.445000000000000000e+03,1.445000000000000000e+03,1.445000000000000000e+03,1.446000000000000000e+03,1.446000000000000000e+03,1.445000000000000000e+03,1.445000000000000000e+03,1.446000000000000000e+03,1.445000000000000000e+03,1.445000000000000000e+03,1.446000000000000000e+03,1.446000000000000000e+03,1.445000000000000000e+03,1.445000000000000000e+03,1.445000000000000000e+03,1.445000000000000000e+03,1.445000000000000000e+03,1.445000000000000000e+03,1.445000000000000000e+03,1.445000000000000000e+03,1.445000000000000000e+03,1.445000000000000000e+03,1.445000000000000000e+03,1.444000000000000000e+03,1.444000000000000000e+03,1.443000000000000000e+03
1.440000000000000000e+03,1.441000000000000000e+03,1.437000000000000000e+03,1.438000000000000000e+03,1.439000000000000000e+03,1.441000000000000000e+03,1.442000000000000000e+03,1.444000000000000000e+03,1.444000000000000000e+03,1.443000000000000000e+03,1.442000000000000000e+03,1.443000000000000000e+03,1.441000000000000000e+03,1.444000000000000000e+03,1.443000000000000000e+03,1.442000000000000000e+03,1.441000000000000000e+03,1.442000000000000000e+03,1.439000000000000000e+03,1.442000000000000000e+03,1.444000000000000000e+03,1.446000000000000000e+03,1.445000000000000000e+03,1.447000000000000000e+03,1.446000000000000000e+03,1.445000000000000000e+03,1.445000000000000000e+03,1.445000000000000000e+03,1.445000000000000000e+03,1.445000000000000000e+03,1.445000000000000000e+03,1.445000000000000000e+03,1.444000000000000000e+03,1.444000000000000000e+03,1.443000000000000000e+03,1.441000000000000000e+03,1.443000000000000000e+03,1.442000000000000000e+03,1.442000000000000000e+03,1.443000000000000000e+03,1.444000000000000000e+03,1.445000000000000000e+03,1.447000000000000000e+03,1.447000000000000000e+03,1.447000000000000000e+03,1.448000000000000000e+03,1.447000000000000000e+03,1.447000000000000000e+03,1.447000000000000000e+03,1.447000000000000000e+03,1.444000000000000000e+03,1.441000000000000000e+03,1.439000000000000000e+03,1.438000000000000000e+03,1.439000000000000000e+03,1.441000000000000000e+03,1.443000000000000000e+03,1.446000000000000000e+03,1.447000000000000000e+03,1.448000000000000000e+03,1.447000000000000000e+03,1.446000000000000000e+03,1.445000000000000000e+03,1.446000000000000000e+03,1.447000000000000000e+03,1.447000000000000000e+03,1.446000000000000000e+03,1.447000000000000000e+03,1.447000000000000000e+03,1.447000000000000000e+03,1.448000000000000000e+03,1.448000000000000000e+03,1.448000000000000000e+03,1.447000000000000000e+03,1.446000000000000000e+03,1.446000000000000000e+03,1.446000000000000000e+03,1.447000000000000000e+03,1.447000000000000000e+03,1.448000000000000000e+03,1.448000000000000000e+03,1.448000000000000000e+03,1.448000000000000000e+03,1.448000000000000000e+03,1.447000000000000000e+03,1.447000000000000000e+03,1.447000000000000000e+03,1.447000000000000000e+03,1.447000000000000000e+03,1.448000000000000000e+03,1.448000000000000000e+03,1.447000000000000000e+03,1.446000000000000000e+03,1.447000000000000000e+03,1.446000000000000000e+03,1.445000000000000000e+03,1.446000000000000000e+03,1.446000000000000000e+03,1.444000000000000000e+03,1.445000000000000000e+03,1.446000000000000000e+03,1.446000000000000000e+03,1.446000000000000000e+03,1.446000000000000000e+03,1.446000000000000000e+03,1.445000000000000000e+03,1.444000000000000000e+03,1.444000000000000000e+03,1.444000000000000000e+03,1.444000000000000000e+03,1.445000000000000000e+03,1.446000000000000000e+03,1.446000000000000000e+03,1.447000000000000000e+03,1.447000000000000000e+03,1.446000000000000000e+03,1.445000000000000000e+03,1.445000000000000000e+03,1.444000000000000000e+03
1.439000000000000000e+03,1.441000000000000000e+03,1.440000000000000000e+03,1.437000000000000000e+03,1.438000000000000000e+03,1.439000000000000000e+03,1.441000000000000000e+03,1.442000000000000000e+03,1.442000000000000000e+03,1.442000000000000000e+03,1.441000000000000000e+03,1.443000000000000000e+03,1.443000000000000000e+03,1.444000000000000000e+03,1.444000000000000000e+03,1.443000000000000000e+03,1.441000000000000000e+03,1.442000000000000000e+03,1.441000000000000000e+03,1.444000000000000000e+03,1.445000000000000000e+03,1.447000000000000000e+03,1.448000000000000000e+03,1.449000000000000000e+03,1.446000000000000000e+03,1.447000000000000000e+03,1.446000000000000000e+03,1.445000000000000000e+03,1.446000000000000000e+03,1.445000000000000000e+03,1.445000000000000000e+03,1.444000000000000000e+03,1.443000000000000000e+03,1.442000000000000000e+03,1.443000000000000000e+03,1.442000000000000000e+03,1.443000000000000000e+03,1.443000000000000000e+03,1.443000000000000000e+03,1.443000000000000000e+03,1.444000000000000000e+03,1.445000000000000000e+03,1.447000000000000000e+03,1.448000000000000000e+03,1.447000000000000000e+03,1.447000000000000000e+03,1.446000000000000000e+03,1.445000000000000000e+03,1.446000000000000000e+03,1.446000000000000000e+03,1.445000000000000000e+03,1.443000000000000000e+03,1.442000000000000000e+03,1.442000000000000000e+03,1.442000000000000000e+03,1.444000000000000000e+03,1.447000000000000000e+03,1.448000000000000000e+03,1.448000000000000000e+03,1.448000000000000000e+03,1.447000000000000000e+03,1.446000000000000000e+03,1.446000000000000000e+03,1.446000000000000000e+03,1.447000000000000000e+03,1.447000000000000000e+03,1.447000000000000000e+03,1.447000000000000000e+03,1.447000000000000000e+03,1.448000000000000000e+03,1.449000000000000000e+03,1.449000000000000000e+03,1.449000000000000000e+03,1.448000000000000000e+03,1.447000000000000000e+03,1.446000000000000000e+03,1.446000000000000000e+03,1.447000000000000000e+03,1.447000000000000000e+03,1.448000000000000000e+03,1.449000000000000000e+03,1.448000000000000000e+03,1.448000000000000000e+03,1.448000000000000000e+03,1.447000000000000000e+03,1.447000000000000000e+03,1.447000000000000000e+03,1.447000000000000000e+03,1.448000000000000000e+03,1.449000000000000000e+03,1.449000000000000000e+03,1.448000000000000000e+03,1.447000000000000000e+03,1.448000000000000000e+03,1.447000000000000000e+03,1.447000000000000000e+03,1.446000000000000000e+03,1.446000000000000000e+03,1.445000000000000000e+03,1.445000000000000000e+03,1.446000000000000000e+03,1.446000000000000000e+03,1.446000000000000000e+03,1.446000000000000000e+03,1.446000000000000000e+03,1.445000000000000000e+03,1.445000000000000000e+03,1.445000000000000000e+03,1.445000000000000000e+03,1.445000000000000000e+03,1.446000000000000000e+03,1.447000000000000000e+03,1.446000000000000000e+03,1.447000000000000000e+03,1.447000000000000000e+03,1.446000000000000000e+03,1.446000000000000000e+03,1.445000000000000000e+03,1.444000000000000000e+03
1.442000000000000000e+03,1.442000000000000000e+03,1.441000000000000000e+03,1.440000000000000000e+03,1.440000000000000000e+03,1.440000000000000000e+03,1.442000000000000000e+03,1.442000000000000000e+03,1.442000000000000000e+03,1.442000000000000000e+03,1.441000000000000000e+03,1.442000000000000000e+03,1.443000000000000000e+03,1.444000000000000000e+03,1.444000000000000000e+03,1.444000000000000000e+03,1.442000000000000000e+03,1.443000000000000000e+03,1.443000000000000000e+03,1.444000000000000000e+03,1.445000000000000000e+03,1.448000000000000000e+03,1.448000000000000000e+03,1.448000000000000000e+03,1.447000000000000000e+03,1.448000000000000000e+03,1.445000000000000000e+03,1.445000000000000000e+03,1.445000000000000000e+03,1.444000000000000000e+03,1.444000000000000000e+03,1.444000000000000000e+03,1.445000000000000000e+03,1.443000000000000000e+03,1.445000000000000000e+03,1.443000000000000000e+03,1.443000000000000000e+03,1.442000000000000000e+03,1.442000000000000000e+03,1.443000000000000000e+03,1.444000000000000000e+03,1.445000000000000000e+03,1.448000000000000000e+03,1.450000000000000000e+03,1.448000000000000000e+03,1.449000000000000000e+03,1.448000000000000000e+03,1.446000000000000000e+03,1.446000000000000000e+03,1.446000000000000000e+03,1.445000000000000000e+03,1.445000000000000000e+03,1.445000000000000000e+03,1.444000000000000000e+03,1.444000000000000000e+03,1.446000000000000000e+03,1.447000000000000000e+03,1.448000000000000000e+03,1.447000000000000000e+03,1.447000000000000000e+03,1.447000000000000000e+03,1.446000000000000000e+03,1.446000000000000000e+03,1.448000000000000000e+03,1.448000000000000000e+03,1.448000000000000000e+03,1.448000000000000000e+03,1.448000000000000000e+03,1.447000000000000000e+03,1.448000000000000000e+03,1.449000000000000000e+03,1.450000000000000000e+03,1.449000000000000000e+03,1.448000000000000000e+03,1.447000000000000000e+03,1.447000000000000000e+03,1.448000000000000000e+03,1.449000000000000000e+03,1.448000000000000000e+03,1.448000000000000000e+03,1.448000000000000000e+03,1.448000000000000000e+03,1.448000000000000000e+03,1.448000000000000000e+03,1.448000000000000000e+03,1.448000000000000000e+03,1.448000000000000000e+03,1.448000000000000000e+03,1.448000000000000000e+03,1.449000000000000000e+03,1.449000000000000000e+03,1.449000000000000000e+03,1.448000000000000000e+03,1.449000000000000000e+03,1.448000000000000000e+03,1.448000000000000000e+03,1.447000000000000000e+03,1.447000000000000000e+03,1.446000000000000000e+03,1.446000000000000000e+03,1.446000000000000000e+03,1.447000000000000000e+03,1.447000000000000000e+03,1.447000000000000000e+03,1.447000000000000000e+03,1.446000000000000000e+03,1.445000000000000000e+03,1.445000000000000000e+03,1.446000000000000000e+03,1.445000000000000000e+03,1.446000000000000000e+03,1.447000000000000000e+03,1.447000000000000000e+03,1.447000000000000000e+03,1.448000000000000000e+03,1.448000000000000000e+03,1.447000000000000000e+03,1.447000000000000000e+03,1.446000000000000000e+03
1.443000000000000000e+03,1.442000000000000000e+03,1.440000000000000000e+03,1.439000000000000000e+03,1.438000000000000000e+03,1.438000000000000000e+03,1.441000000000000000e+03,1.441000000000000000e+03,1.441000000000000000e+03,1.441000000000000000e+03,1.441000000000000000e+03,1.441000000000000000e+03,1.442000000000000000e+03,1.444000000000000000e+03,1.443000000000000000e+03,1.443000000000000000e+03,1.441000000000000000e+03,1.442000000000000000e+03,1.442000000000000000e+03,1.444000000000000000e+03,1.446000000000000000e+03,1.449000000000000000e+03,1.448000000000000000e+03,1.450000000000000000e+03,1.448000000000000000e+03,1.448000000000000000e+03,1.446000000000000000e+03,1.446000000000000000e+03,1.446000000000000000e+03,1.445000000000000000e+03,1.445000000000000000e+03,1.445000000000000000e+03,1.444000000000000000e+03,1.445000000000000000e+03,1.446000000000000000e+03,1.444000000000000000e+03,1.445000000000000000e+03,1.445000000000000000e+03,1.444000000000000000e+03,1.444000000000000000e+03,1.445000000000000000e+03,1.447000000000000000e+03,1.448000000000000000e+03,1.450000000000000000e+03,1.449000000000000000e+03,1.448000000000000000e+03,1.447000000000000000e+03,1.445000000000000000e+03,1.446000000000000000e+03,1.447000000000000000e+03,1.447000000000000000e+03,1.448000000000000000e+03,1.447000000000000000e+03,1.447000000000000000e+03,1.446000000000000000e+03,1.448000000000000000e+03,1.448000000000000000e+03,1.449000000000000000e+03,1.448000000000000000e+03,1.448000000000000000e+03,1.447000000000000000e+03,1.446000000000000000e+03,1.446000000000000000e+03,1.447000000000000000e+03,1.448000000000000000e+03,1.447000000000000000e+03,1.447000000000000000e+03,1.448000000000000000e+03,1.448000000000000000e+03,1.449000000000000000e+03,1.449000000000000000e+03,1.451000000000000000e+03,1.449000000000000000e+03,1.449000000000000000e+03,1.448000000000000000e+03,1.448000000000000000e+03,1.448000000000000000e+03,1.449000000000000000e+03,1.450000000000000000e+03,1.449000000000000000e+03,1.449000000000000000e+03,1.448000000000000000e+03,1.448000000000000000e+03,1.447000000000000000e+03,1.447000000000000000e+03,1.448000000000000000e+03,1.448000000000000000e+03,1.448000000000000000e+03,1.448000000000000000e+03,1.449000000000000000e+03,1.449000000000000000e+03,1.450000000000000000e+03,1.449000000000000000e+03,1.450000000000000000e+03,1.449000000000000000e+03,1.449000000000000000e+03,1.447000000000000000e+03,1.448000000000000000e+03,1.446000000000000000e+03,1.446000000000000000e+03,1.447000000000000000e+03,1.448000000000000000e+03,1.448000000000000000e+03,1.448000000000000000e+03,1.447000000000000000e+03,1.446000000000000000e+03,1.446000000000000000e+03,1.446000000000000000e+03,1.446000000000000000e+03,1.446000000000000000e+03,1.447000000000000000e+03,1.448000000000000000e+03,1.448000000000000000e+03,1.448000000000000000e+03,1.449000000000000000e+03,1.449000000000000000e+03,1.448000000000000000e+03,1.448000000000000000e+03,1.446000000000000000e+03
1.444000000000000000e+03,1.440000000000000000e+03,1.440000000000000000e+03,1.438000000000000000e+03,1.438000000000000000e+03,1.439000000000000000e+03,1.441000000000000000e+03,1.441000000000000000e+03,1.440000000000000000e+03,1.442000000000000000e+03,1.442000000000000000e+03,1.443000000000000000e+03,1.442000000000000000e+03,1.443000000000000000e+03,1.443000000000000000e+03,1.443000000000000000e+03,1.441000000000000000e+03,1.443000000000000000e+03,1.444000000000000000e+03,1.446000000000000000e+03,1.447000000000000000e+03,1.449000000000000000e+03,1.449000000000000000e+03,1.450000000000000000e+03,1.449000000000000000e+03,1.448000000000000000e+03,1.446000000000000000e+03,1.445000000000000000e+03,1.444000000000000000e+03,1.444000000000000000e+03,1.444000000000000000e+03,1.445000000000000000e+03,1.445000000000000000e+03,1.445000000000000000e+03,1.446000000000000000e+03,1.445000000000000000e+03,1.446000000000000000e+03,1.446000000000000000e+03,1.445000000000000000e+03,1.445000000000000000e+03,1.446000000000000000e+03,1.447000000000000000e+03,1.448000000000000000e+03,1.450000000000000000e+03,1.449000000000000000e+03,1.450000000000000000e+03,1.448000000000000000e+03,1.447000000000000000e+03,1.448000000000000000e+03,1.449000000000000000e+03,1.449000000000000000e+03,1.450000000000000000e+03,1.449000000000000000e+03,1.449000000000000000e+03,1.447000000000000000e+03,1.448000000000000000e+03,1.448000000000000000e+03,1.449000000000000000e+03,1.448000000000000000e+03,1.448000000000000000e+03,1.447000000000000000e+03,1.446000000000000000e+03,1.446000000000000000e+03,1.447000000000000000e+03,1.448000000000000000e+03,1.449000000000000000e+03,1.449000000000000000e+03,1.450000000000000000e+03,1.450000000000000000e+03,1.450000000000000000e+03,1.451000000000000000e+03,1.451000000000000000e+03,1.449000000000000000e+03,1.449000000000000000e+03,1.448000000000000000e+03,1.448000000000000000e+03,1.448000000000000000e+03,1.449000000000000000e+03,1.448000000000000000e+03,1.447000000000000000e+03,1.447000000000000000e+03,1.448000000000000000e+03,1.448000000000000000e+03,1.448000000000000000e+03,1.448000000000000000e+03,1.448000000000000000e+03,1.448000000000000000e+03,1.448000000000000000e+03,1.448000000000000000e+03,1.449000000000000000e+03,1.449000000000000000e+03,1.450000000000000000e+03,1.450000000000000000e+03,1.451000000000000000e+03,1.450000000000000000e+03,1.450000000000000000e+03,1.448000000000000000e+03,1.449000000000000000e+03,1.447000000000000000e+03,1.448000000000000000e+03,1.447000000000000000e+03,1.448000000000000000e+03,1.448000000000000000e+03,1.448000000000000000e+03,1.447000000000000000e+03,1.447000000000000000e+03,1.446000000000000000e+03,1.447000000000000000e+03,1.447000000000000000e+03,1.447000000000000000e+03,1.447000000000000000e+03,1.448000000000000000e+03,1.448000000000000000e+03,1.449000000000000000e+03,1.450000000000000000e+03,1.450000000000000000e+03,1.449000000000000000e+03,1.448000000000000000e+03,1.447000000000000000e+03
1.443000000000000000e+03,1.443000000000000000e+03,1.440000000000000000e+03,1.438000000000000000e+03,1.437000000000000000e+03,1.439000000000000000e+03,1.441000000000000000e+03,1.442000000000000000e+03,1.441000000000000000e+03,1.443000000000000000e+03,1.443000000000000000e+03,1.444000000000000000e+03,1.442000000000000000e+03,1.443000000000000000e+03,1.442000000000000000e+03,1.443000000000000000e+03,1.441000000000000000e+03,1.445000000000000000e+03,1.446000000000000000e+03,1.448000000000000000e+03,1.448000000000000000e+03,1.451000000000000000e+03,1.450000000000000000e+03,1.450000000000000000e+03,1.450000000000000000e+03,1.449000000000000000e+03,1.446000000000000000e+03,1.446000000000000000e+03,1.445000000000000000e+03,1.445000000000000000e+03,1.445000000000000000e+03,1.446000000000000000e+03,1.446000000000000000e+03,1.447000000000000000e+03,1.447000000000000000e+03,1.448000000000000000e+03,1.449000000000000000e+03,1.448000000000000000e+03,1.447000000000000000e+03,1.448000000000000000e+03,1.447000000000000000e+03,1.448000000000000000e+03,1.449000000000000000e+03,1.450000000000000000e+03,1.448000000000000000e+03,1.449000000000000000e+03,1.447000000000000000e+03,1.447000000000000000e+03,1.447000000000000000e+03,1.450000000000000000e+03,1.449000000000000000e+03,1.451000000000000000e+03,1.449000000000000000e+03,1.449000000000000000e+03,1.447000000000000000e+03,1.449000000000000000e+03,1.448000000000000000e+03,1.449000000000000000e+03,1.448000000000000000e+03,1.447000000000000000e+03,1.447000000000000000e+03,1.446000000000000000e+03,1.447000000000000000e+03,1.448000000000000000e+03,1.449000000000000000e+03,1.449000000000000000e+03,1.451000000000000000e+03,1.451000000000000000e+03,1.451000000000000000e+03,1.451000000000000000e+03,1.451000000000000000e+03,1.452000000000000000e+03,1.451000000000000000e+03,1.450000000000000000e+03,1.450000000000000000e+03,1.450000000000000000e+03,1.449000000000000000e+03,1.450000000000000000e+03,1.449000000000000000e+03,1.448000000000000000e+03,1.448000000000000000e+03,1.449000000000000000e+03,1.448000000000000000e+03,1.448000000000000000e+03,1.449000000000000000e+03,1.449000000000000000e+03,1.448000000000000000e+03,1.448000000000000000e+03,1.449000000000000000e+03,1.449000000000000000e+03,1.450000000000000000e+03,1.451000000000000000e+03,1.450000000000000000e+03,1.451000000000000000e+03,1.450000000000000000e+03,1.450000000000000000e+03,1.449000000000000000e+03,1.450000000000000000e+03,1.449000000000000000e+03,1.449000000000000000e+03,1.448000000000000000e+03,1.449000000000000000e+03,1.448000000000000000e+03,1.448000000000000000e+03,1.448000000000000000e+03,1.449000000000000000e+03,1.448000000000000000e+03,1.449000000000000000e+03,1.449000000000000000e+03,1.448000000000000000e+03,1.448000000000000000e+03,1.449000000000000000e+03,1.448000000000000000e+03,1.449000000000000000e+03,1.450000000000000000e+03,1.450000000000000000e+03,1.449000000000000000e+03,1.448000000000000000e+03,1.448000000000000000e+03
1.443000000000000000e+03,1.442000000000000000e+03,1.439000000000000000e+03,1.437000000000000000e+03,1.439000000000000000e+03,1.440000000000000000e+03,1.441000000000000000e+03,1.443000000000000000e+03,1.444000000000000000e+03,1.446000000000000000e+03,1.446000000000000000e+03,1.446000000000000000e+03,1.445000000000000000e+03,1.445000000000000000e+03,1.443000000000000000e+03,1.444000000000000000e+03,1.445000000000000000e+03,1.446000000000000000e+03,1.447000000000000000e+03,1.448000000000000000e+03,1.448000000000000000e+03,1.449000000000000000e+03,1.449000000000000000e+03,1.449000000000000000e+03,1.449000000000000000e+03,1.447000000000000000e+03,1.446000000000000000e+03,1.445000000000000000e+03,1.445000000000000000e+03,1.446000000000000000e+03,1.446000000000000000e+03,1.446000000000000000e+03,1.447000000000000000e+03,1.447000000000000000e+03,1.448000000000000000e+03,1.449000000000000000e+03,1.449000000000000000e+03,1.449000000000000000e+03,1.448000000000000000e+03,1.449000000000000000e+03,1.448000000000000000e+03,1.450000000000000000e+03,1.449000000000000000e+03,1.451000000000000000e+03,1.449000000000000000e+03,1.450000000000000000e+03,1.449000000000000000e+03,1.450000000000000000e+03,1.450000000000000000e+03,1.452000000000000000e+03,1.451000000000000000e+03,1.451000000000000000e+03,1.449000000000000000e+03,1.449000000000000000e+03,1.447000000000000000e+03,1.449000000000000000e+03,1.448000000000000000e+03,1.449000000000000000e+03,1.449000000000000000e+03,1.448000000000000000e+03,1.448000000000000000e+03,1.447000000000000000e+03,1.447000000000000000e+03,1.448000000000000000e+03,1.450000000000000000e+03,1.450000000000000000e+03,1.450000000000000000e+03,1.450000000000000000e+03,1.451000000000000000e+03,1.450000000000000000e+03,1.451000000000000000e+03,1.452000000000000000e+03,1.452000000000000000e+03,1.452000000000000000e+03,1.451000000000000000e+03,1.451000000000000000e+03,1.450000000000000000e+03,1.451000000000000000e+03,1.450000000000000000e+03,1.449000000000000000e+03,1.449000000000000000e+03,1.450000000000000000e+03,1.449000000000000000e+03,1.450000000000000000e+03,1.451000000000000000e+03,1.450000000000000000e+03,1.450000000000000000e+03,1.450000000000000000e+03,1.450000000000000000e+03,1.450000000000000000e+03,1.450000000000000000e+03,1.450000000000000000e+03,1.450000000000000000e+03,1.451000000000000000e+03,1.450000000000000000e+03,1.450000000000000000e+03,1.450000000000000000e+03,1.450000000000000000e+03,1.449000000000000000e+03,1.449000000000000000e+03,1.449000000000000000e+03,1.449000000000000000e+03,1.449000000000000000e+03,1.449000000000000000e+03,1.449000000000000000e+03,1.449000000000000000e+03,1.450000000000000000e+03,1.449000000000000000e+03,1.449000000000000000e+03,1.449000000000000000e+03,1.448000000000000000e+03,1.448000000000000000e+03,1.449000000000000000e+03,1.449000000000000000e+03,1.450000000000000000e+03,1.450000000000000000e+03,1.450000000000000000e+03,1.449000000000000000e+03,1.449000000000000000e+03
1.445000000000000000e+03,1.444000000000000000e+03,1.440000000000000000e+03,1.439000000000000000e+03,1.439000000000000000e+03,1.439000000000000000e+03,1.441000000000000000e+03,1.443000000000000000e+03,1.444000000000000000e+03,1.447000000000000000e+03,1.447000000000000000e+03,1.449000000000000000e+03,1.447000000000000000e+03,1.448000000000000000e+03,1.446000000000000000e+03,1.446000000000000000e+03,1.447000000000000000e+03,1.447000000000000000e+03,1.448000000000000000e+03,1.449000000000000000e+03,1.449000000000000000e+03,1.449000000000000000e+03,1.449000000000000000e+03,1.449000000000000000e+03,1.448000000000000000e+03,1.447000000000000000e+03,1.447000000000000000e+03,1.447000000000000000e+03,1.447000000000000000e+03,1.447000000000000000e+03,1.447000000000000000e+03,1.447000000000000000e+03,1.447000000000000000e+03,1.448000000000000000e+03,1.449000000000000000e+03,1.450000000000000000e+03,1.449000000000000000e+03,1.451000000000000000e+03,1.450000000000000000e+03,1.450000000000000000e+03,1.450000000000000000e+03,1.451000000000000000e+03,1.449000000000000000e+03,1.450000000000000000e+03,1.450000000000000000e+03,1.450000000000000000e+03,1.450000000000000000e+03,1.451000000000000000e+03,1.451000000000000000e+03,1.453000000000000000e+03,1.452000000000000000e+03,1.453000000000000000e+03,1.451000000000000000e+03,1.451000000000000000e+03,1.449000000000000000e+03,1.450000000000000000e+03,1.450000000000000000e+03,1.451000000000000000e+03,1.450000000000000000e+03,1.449000000000000000e+03,1.449000000000000000e+03,1.448000000000000000e+03,1.448000000000000000e+03,1.448000000000000000e+03,1.451000000000000000e+03,1.450000000000000000e+03,1.451000000000000000e+03,1.451000000000000000e+03,1.452000000000000000e+03,1.451000000000000000e+03,1.453000000000000000e+03,1.453000000000000000e+03,1.454000000000000000e+03,1.454000000000000000e+03,1.452000000000000000e+03,1.452000000000000000e+03,1.451000000000000000e+03,1.451000000000000000e+03,1.450000000000000000e+03,1.450000000000000000e+03,1.449000000000000000e+03,1.450000000000000000e+03,1.449000000000000000e+03,1.450000000000000000e+03,1.451000000000000000e+03,1.451000000000000000e+03,1.451000000000000000e+03,1.451000000000000000e+03,1.451000000000000000e+03,1.450000000000000000e+03,1.450000000000000000e+03,1.450000000000000000e+03,1.450000000000000000e+03,1.450000000000000000e+03,1.451000000000000000e+03,1.451000000000000000e+03,1.451000000000000000e+03,1.452000000000000000e+03,1.451000000000000000e+03,1.451000000000000000e+03,1.451000000000000000e+03,1.451000000000000000e+03,1.451000000000000000e+03,1.451000000000000000e+03,1.450000000000000000e+03,1.450000000000000000e+03,1.450000000000000000e+03,1.450000000000000000e+03,1.450000000000000000e+03,1.450000000000000000e+03,1.449000000000000000e+03,1.449000000000000000e+03,1.449000000000000000e+03,1.450000000000000000e+03,1.450000000000000000e+03,1.450000000000000000e+03,1.450000000000000000e+03,1.449000000000000000e+03,1.449000000000000000e+03
1.447000000000000000e+03,1.445000000000000000e+03,1.444000000000000000e+03,1.441000000000000000e+03,1.441000000000000000e+03,1.440000000000000000e+03,1.443000000000000000e+03,1.445000000000000000e+03,1.447000000000000000e+03,1.449000000000000000e+03,1.451000000000000000e+03,1.450000000000000000e+03,1.449000000000000000e+03,1.448000000000000000e+03,1.449000000000000000e+03,1.448000000000000000e+03,1.449000000000000000e+03,1.448000000000000000e+03,1.450000000000000000e+03,1.451000000000000000e+03,1.449000000000000000e+03,1.448000000000000000e+03,1.449000000000000000e+03,1.448000000000000000e+03,1.447000000000000000e+03,1.445000000000000000e+03,1.445000000000000000e+03,1.446000000000000000e+03,1.447000000000000000e+03,1.447000000000000000e+03,1.449000000000000000e+03,1.447000000000000000e+03,1.448000000000000000e+03,1.449000000000000000e+03,1.449000000000000000e+03,1.449000000000000000e+03,1.451000000000000000e+03,1.450000000000000000e+03,1.450000000000000000e+03,1.451000000000000000e+03,1.451000000000000000e+03,1.450000000000000000e+03,1.450000000000000000e+03,1.450000000000000000e+03,1.451000000000000000e+03,1.452000000000000000e+03,1.453000000000000000e+03,1.453000000000000000e+03,1.453000000000000000e+03,1.453000000000000000e+03,1.452000000000000000e+03,1.453000000000000000e+03,1.451000000000000000e+03,1.450000000000000000e+03,1.449000000000000000e+03,1.450000000000000000e+03,1.450000000000000000e+03,1.451000000000000000e+03,1.451000000000000000e+03,1.451000000000000000e+03,1.451000000000000000e+03,1.450000000000000000e+03,1.451000000000000000e+03,1.451000000000000000e+03,1.452000000000000000e+03,1.452000000000000000e+03,1.453000000000000000e+03,1.452000000000000000e+03,1.453000000000000000e+03,1.453000000000000000e+03,1.454000000000000000e+03,1.454000000000000000e+03,1.455000000000000000e+03,1.454000000000000000e+03,1.453000000000000000e+03,1.452000000000000000e+03,1.451000000000000000e+03,1.451000000000000000e+03,1.451000000000000000e+03,1.450000000000000000e+03,1.450000000000000000e+03,1.451000000000000000e+03,1.451000000000000000e+03,1.451000000000000000e+03,1.453000000000000000e+03,1.453000000000000000e+03,1.452000000000000000e+03,1.452000000000000000e+03,1.452000000000000000e+03,1.451000000000000000e+03,1.451000000000000000e+03,1.451000000000000000e+03,1.450000000000000000e+03,1.452000000000000000e+03,1.453000000000000000e+03,1.453000000000000000e+03,1.453000000000000000e+03,1.453000000000000000e+03,1.452000000000000000e+03,1.452000000000000000e+03,1.452000000000000000e+03,1.452000000000000000e+03,1.451000000000000000e+03,1.451000000000000000e+03,1.450000000000000000e+03,1.451000000000000000e+03,1.451000000000000000e+03,1.451000000000000000e+03,1.450000000000000000e+03,1.451000000000000000e+03,1.449000000000000000e+03,1.449000000000000000e+03,1.450000000000000000e+03,1.450000000000000000e+03,1.450000000000000000e+03,1.451000000000000000e+03,1.450000000000000000e+03,1.449000000000000000e+03,1.450000000000000000e+03
1.447000000000000000e+03,1.447000000000000000e+03,1.448000000000000000e+03,1.445000000000000000e+03,1.443000000000000000e+03,1.442000000000000000e+03,1.443000000000000000e+03,1.444000000000000000e+03,1.447000000000000000e+03,1.448000000000000000e+03,1.450000000000000000e+03,1.449000000000000000e+03,1.451000000000000000e+03,1.449000000000000000e+03,1.449000000000000000e+03,1.450000000000000000e+03,1.451000000000000000e+03,1.450000000000000000e+03,1.450000000000000000e+03,1.451000000000000000e+03,1.450000000000000000e+03,1.450000000000000000e+03,1.449000000000000000e+03,1.449000000000000000e+03,1.448000000000000000e+03,1.447000000000000000e+03,1.447000000000000000e+03,1.449000000000000000e+03,1.450000000000000000e+03,1.450000000000000000e+03,1.450000000000000000e+03,1.451000000000000000e+03,1.450000000000000000e+03,1.451000000000000000e+03,1.452000000000000000e+03,1.451000000000000000e+03,1.452000000000000000e+03,1.452000000000000000e+03,1.452000000000000000e+03,1.452000000000000000e+03,1.453000000000000000e+03,1.452000000000000000e+03,1.452000000000000000e+03,1.452000000000000000e+03,1.453000000000000000e+03,1.454000000000000000e+03,1.454000000000000000e+03,1.454000000000000000e+03,1.454000000000000000e+03,1.453000000000000000e+03,1.452000000000000000e+03,1.454000000000000000e+03,1.452000000000000000e+03,1.450000000000000000e+03,1.450000000000000000e+03,1.451000000000000000e+03,1.450000000000000000e+03,1.451000000000000000e+03,1.452000000000000000e+03,1.451000000000000000e+03,1.452000000000000000e+03,1.452000000000000000e+03,1.452000000000000000e+03,1.452000000000000000e+03,1.453000000000000000e+03,1.453000000000000000e+03,1.453000000000000000e+03,1.453000000000000000e+03,1.453000000000000000e+03,1.453000000000000000e+03,1.454000000000000000e+03,1.454000000000000000e+03,1.455000000000000000e+03,1.454000000000000000e+03,1.453000000000000000e+03,1.453000000000000000e+03,1.452000000000000000e+03,1.453000000000000000e+03,1.453000000000000000e+03,1.453000000000000000e+03,1.452000000000000000e+03,1.454000000000000000e+03,1.453000000000000000e+03,1.453000000000000000e+03,1.454000000000000000e+03,1.454000000000000000e+03,1.453000000000000000e+03,1.453000000000000000e+03,1.453000000000000000e+03,1.452000000000000000e+03,1.452000000000000000e+03,1.452000000000000000e+03,1.451000000000000000e+03,1.452000000000000000e+03,1.452000000000000000e+03,1.453000000000000000e+03,1.453000000000000000e+03,1.453000000000000000e+03,1.452000000000000000e+03,1.452000000000000000e+03,1.452000000000000000e+03,1.453000000000000000e+03,1.452000000000000000e+03,1.453000000000000000e+03,1.452000000000000000e+03,1.452000000000000000e+03,1.452000000000000000e+03,1.452000000000000000e+03,1.451000000000000000e+03,1.451000000000000000e+03,1.450000000000000000e+03,1.449000000000000000e+03,1.450000000000000000e+03,1.450000000000000000e+03,1.450000000000000000e+03,1.451000000000000000e+03,1.451000000000000000e+03,1.450000000000000000e+03,1.450000000000000000e+03
1.449000000000000000e+03,1.449000000000000000e+03,1.446000000000000000e+03,1.443000000000000000e+03,1.444000000000000000e+03,1.443000000000000000e+03,1.444000000000000000e+03,1.446000000000000000e+03,1.448000000000000000e+03,1.449000000000000000e+03,1.451000000000000000e+03,1.450000000000000000e+03,1.452000000000000000e+03,1.451000000000000000e+03,1.452000000000000000e+03,1.452000000000000000e+03,1.453000000000000000e+03,1.451000000000000000e+03,1.450000000000000000e+03,1.451000000000000000e+03,1.450000000000000000e+03,1.450000000000000000e+03,1.450000000000000000e+03,1.450000000000000000e+03,1.449000000000000000e+03,1.448000000000000000e+03,1.449000000000000000e+03,1.450000000000000000e+03,1.451000000000000000e+03,1.452000000000000000e+03,1.453000000000000000e+03,1.453000000000000000e+03,1.452000000000000000e+03,1.450000000000000000e+03,1.452000000000000000e+03,1.451000000000000000e+03,1.451000000000000000e+03,1.451000000000000000e+03,1.452000000000000000e+03,1.452000000000000000e+03,1.453000000000000000e+03,1.452000000000000000e+03,1.453000000000000000e+03,1.453000000000000000e+03,1.454000000000000000e+03,1.454000000000000000e+03,1.455000000000000000e+03,1.455000000000000000e+03,1.454000000000000000e+03,1.454000000000000000e+03,1.454000000000000000e+03,1.454000000000000000e+03,1.453000000000000000e+03,1.451000000000000000e+03,1.450000000000000000e+03,1.451000000000000000e+03,1.451000000000000000e+03,1.453000000000000000e+03,1.454000000000000000e+03,1.454000000000000000e+03,1.453000000000000000e+03,1.454000000000000000e+03,1.452000000000000000e+03,1.452000000000000000e+03,1.453000000000000000e+03,1.453000000000000000e+03,1.453000000000000000e+03,1.453000000000000000e+03,1.454000000000000000e+03,1.454000000000000000e+03,1.455000000000000000e+03,1.455000000000000000e+03,1.455000000000000000e+03,1.454000000000000000e+03,1.453000000000000000e+03,1.453000000000000000e+03,1.452000000000000000e+03,1.452000000000000000e+03,1.453000000000000000e+03,1.453000000000000000e+03,1.454000000000000000e+03,1.455000000000000000e+03,1.455000000000000000e+03,1.454000000000000000e+03,1.455000000000000000e+03,1.455000000000000000e+03,1.456000000000000000e+03,1.455000000000000000e+03,1.455000000000000000e+03,1.454000000000000000e+03,1.453000000000000000e+03,1.452000000000000000e+03,1.452000000000000000e+03,1.453000000000000000e+03,1.454000000000000000e+03,1.454000000000000000e+03,1.455000000000000000e+03,1.454000000000000000e+03,1.454000000000000000e+03,1.454000000000000000e+03,1.454000000000000000e+03,1.454000000000000000e+03,1.454000000000000000e+03,1.454000000000000000e+03,1.453000000000000000e+03,1.453000000000000000e+03,1.452000000000000000e+03,1.452000000000000000e+03,1.452000000000000000e+03,1.452000000000000000e+03,1.451000000000000000e+03,1.451000000000000000e+03,1.452000000000000000e+03,1.451000000000000000e+03,1.451000000000000000e+03,1.452000000000000000e+03,1.452000000000000000e+03,1.450000000000000000e+03,1.451000000000000000e+03
1.449000000000000000e+03,1.449000000000000000e+03,1.448000000000000000e+03,1.447000000000000000e+03,1.446000000000000000e+03,1.445000000000000000e+03,1.445000000000000000e+03,1.447000000000000000e+03,1.448000000000000000e+03,1.448000000000000000e+03,1.449000000000000000e+03,1.450000000000000000e+03,1.452000000000000000e+03,1.451000000000000000e+03,1.452000000000000000e+03,1.453000000000000000e+03,1.452000000000000000e+03,1.451000000000000000e+03,1.451000000000000000e+03,1.452000000000000000e+03,1.450000000000000000e+03,1.450000000000000000e+03,1.451000000000000000e+03,1.451000000000000000e+03,1.452000000000000000e+03,1.452000000000000000e+03,1.452000000000000000e+03,1.452000000000000000e+03,1.452000000000000000e+03,1.452000000000000000e+03,1.453000000000000000e+03,1.454000000000000000e+03,1.452000000000000000e+03,1.454000000000000000e+03,1.453000000000000000e+03,1.452000000000000000e+03,1.452000000000000000e+03,1.452000000000000000e+03,1.453000000000000000e+03,1.453000000000000000e+03,1.454000000000000000e+03,1.453000000000000000e+03,1.454000000000000000e+03,1.454000000000000000e+03,1.455000000000000000e+03,1.455000000000000000e+03,1.457000000000000000e+03,1.456000000000000000e+03,1.456000000000000000e+03,1.456000000000000000e+03,1.455000000000000000e+03,1.456000000000000000e+03,1.455000000000000000e+03,1.454000000000000000e+03,1.454000000000000000e+03,1.454000000000000000e+03,1.453000000000000000e+03,1.454000000000000000e+03,1.455000000000000000e+03,1.455000000000000000e+03,1.454000000000000000e+03,1.455000000000000000e+03,1.454000000000000000e+03,1.454000000000000000e+03,1.454000000000000000e+03,1.454000000000000000e+03,1.454000000000000000e+03,1.454000000000000000e+03,1.455000000000000000e+03,1.455000000000000000e+03,1.456000000000000000e+03,1.455000000000000000e+03,1.455000000000000000e+03,1.454000000000000000e+03,1.454000000000000000e+03,1.454000000000000000e+03,1.453000000000000000e+03,1.453000000000000000e+03,1.454000000000000000e+03,1.454000000000000000e+03,1.456000000000000000e+03,1.457000000000000000e+03,1.457000000000000000e+03,1.456000000000000000e+03,1.455000000000000000e+03,1.455000000000000000e+03,1.455000000000000000e+03,1.455000000000000000e+03,1.455000000000000000e+03,1.454000000000000000e+03,1.454000000000000000e+03,1.454000000000000000e+03,1.454000000000000000e+03,1.454000000000000000e+03,1.455000000000000000e+03,1.455000000000000000e+03,1.455000000000000000e+03,1.454000000000000000e+03,1.454000000000000000e+03,1.454000000000000000e+03,1.454000000000000000e+03,1.455000000000000000e+03,1.454000000000000000e+03,1.455000000000000000e+03,1.454000000000000000e+03,1.454000000000000000e+03,1.453000000000000000e+03,1.453000000000000000e+03,1.452000000000000000e+03,1.453000000000000000e+03,1.453000000000000000e+03,1.453000000000000000e+03,1.453000000000000000e+03,1.453000000000000000e+03,1.452000000000000000e+03,1.453000000000000000e+03,1.453000000000000000e+03,1.452000000000000000e+03,1.452000000000000000e+03
1.449000000000000000e+03,1.447000000000000000e+03,1.447000000000000000e+03,1.447000000000000000e+03,1.447000000000000000e+03,1.448000000000000000e+03,1.448000000000000000e+03,1.448000000000000000e+03,1.447000000000000000e+03,1.446000000000000000e+03,1.446000000000000000e+03,1.447000000000000000e+03,1.448000000000000000e+03,1.447000000000000000e+03,1.449000000000000000e+03,1.452000000000000000e+03,1.452000000000000000e+03,1.452000000000000000e+03,1.453000000000000000e+03,1.453000000000000000e+03,1.451000000000000000e+03,1.451000000000000000e+03,1.451000000000000000e+03,1.450000000000000000e+03,1.454000000000000000e+03,1.452000000000000000e+03,1.454000000000000000e+03,1.454000000000000000e+03,1.454000000000000000e+03,1.453000000000000000e+03,1.454000000000000000e+03,1.454000000000000000e+03,1.453000000000000000e+03,1.454000000000000000e+03,1.453000000000000000e+03,1.452000000000000000e+03,1.451000000000000000e+03,1.452000000000000000e+03,1.453000000000000000e+03,1.454000000000000000e+03,1.455000000000000000e+03,1.455000000000000000e+03,1.456000000000000000e+03,1.456000000000000000e+03,1.455000000000000000e+03,1.456000000000000000e+03,1.456000000000000000e+03,1.456000000000000000e+03,1.456000000000000000e+03,1.455000000000000000e+03,1.455000000000000000e+03,1.456000000000000000e+03,1.455000000000000000e+03,1.454000000000000000e+03,1.454000000000000000e+03,1.454000000000000000e+03,1.453000000000000000e+03,1.455000000000000000e+03,1.456000000000000000e+03,1.457000000000000000e+03,1.455000000000000000e+03,1.455000000000000000e+03,1.454000000000000000e+03,1.455000000000000000e+03,1.454000000000000000e+03,1.455000000000000000e+03,1.455000000000000000e+03,1.455000000000000000e+03,1.455000000000000000e+03,1.455000000000000000e+03,1.455000000000000000e+03,1.454000000000000000e+03,1.455000000000000000e+03,1.454000000000000000e+03,1.454000000000000000e+03,1.454000000000000000e+03,1.453000000000000000e+03,1.453000000000000000e+03,1.454000000000000000e+03,1.455000000000000000e+03,1.456000000000000000e+03,1.457000000000000000e+03,1.457000000000000000e+03,1.456000000000000000e+03,1.456000000000000000e+03,1.455000000000000000e+03,1.455000000000000000e+03,1.455000000000000000e+03,1.455000000000000000e+03,1.455000000000000000e+03,1.455000000000000000e+03,1.454000000000000000e+03,1.455000000000000000e+03,1.455000000000000000e+03,1.455000000000000000e+03,1.455000000000000000e+03,1.456000000000000000e+03,1.455000000000000000e+03,1.455000000000000000e+03,1.454000000000000000e+03,1.454000000000000000e+03,1.454000000000000000e+03,1.454000000000000000e+03,1.454000000000000000e+03,1.454000000000000000e+03,1.453000000000000000e+03,1.453000000000000000e+03,1.453000000000000000e+03,1.453000000000000000e+03,1.452000000000000000e+03,1.452000000000000000e+03,1.453000000000000000e+03,1.453000000000000000e+03,1.453000000000000000e+03,1.453000000000000000e+03,1.454000000000000000e+03,1.454000000000000000e+03,1.453000000000000000e+03,1.453000000000000000e+03
1.448000000000000000e+03,1.448000000000000000e+03,1.449000000000000000e+03,1.449000000000000000e+03,1.450000000000000000e+03,1.449000000000000000e+03,1.448000000000000000e+03,1.447000000000000000e+03,1.445000000000000000e+03,1.444000000000000000e+03,1.443000000000000000e+03,1.444000000000000000e+03,1.445000000000000000e+03,1.447000000000000000e+03,1.449000000000000000e+03,1.451000000000000000e+03,1.452000000000000000e+03,1.454000000000000000e+03,1.454000000000000000e+03,1.452000000000000000e+03,1.451000000000000000e+03,1.450000000000000000e+03,1.451000000000000000e+03,1.451000000000000000e+03,1.454000000000000000e+03,1.453000000000000000e+03,1.456000000000000000e+03,1.455000000000000000e+03,1.454000000000000000e+03,1.454000000000000000e+03,1.453000000000000000e+03,1.454000000000000000e+03,1.453000000000000000e+03,1.455000000000000000e+03,1.451000000000000000e+03,1.452000000000000000e+03,1.449000000000000000e+03,1.452000000000000000e+03,1.452000000000000000e+03,1.455000000000000000e+03,1.455000000000000000e+03,1.456000000000000000e+03,1.457000000000000000e+03,1.456000000000000000e+03,1.455000000000000000e+03,1.455000000000000000e+03,1.456000000000000000e+03,1.455000000000000000e+03,1.456000000000000000e+03,1.457000000000000000e+03,1.457000000000000000e+03,1.457000000000000000e+03,1.457000000000000000e+03,1.457000000000000000e+03,1.456000000000000000e+03,1.457000000000000000e+03,1.456000000000000000e+03,1.456000000000000000e+03,1.457000000000000000e+03,1.456000000000000000e+03,1.455000000000000000e+03,1.455000000000000000e+03,1.454000000000000000e+03,1.454000000000000000e+03,1.454000000000000000e+03,1.455000000000000000e+03,1.455000000000000000e+03,1.456000000000000000e+03,1.456000000000000000e+03,1.455000000000000000e+03,1.455000000000000000e+03,1.454000000000000000e+03,1.455000000000000000e+03,1.454000000000000000e+03,1.455000000000000000e+03,1.455000000000000000e+03,1.455000000000000000e+03,1.454000000000000000e+03,1.455000000000000000e+03,1.454000000000000000e+03,1.456000000000000000e+03,1.457000000000000000e+03,1.457000000000000000e+03,1.457000000000000000e+03,1.456000000000000000e+03,1.456000000000000000e+03,1.457000000000000000e+03,1.457000000000000000e+03,1.457000000000000000e+03,1.457000000000000000e+03,1.457000000000000000e+03,1.456000000000000000e+03,1.456000000000000000e+03,1.455000000000000000e+03,1.455000000000000000e+03,1.455000000000000000e+03,1.455000000000000000e+03,1.455000000000000000e+03,1.456000000000000000e+03,1.455000000000000000e+03,1.455000000000000000e+03,1.455000000000000000e+03,1.455000000000000000e+03,1.455000000000000000e+03,1.455000000000000000e+03,1.454000000000000000e+03,1.454000000000000000e+03,1.454000000000000000e+03,1.453000000000000000e+03,1.453000000000000000e+03,1.453000000000000000e+03,1.453000000000000000e+03,1.453000000000000000e+03,1.453000000000000000e+03,1.453000000000000000e+03,1.454000000000000000e+03,1.454000000000000000e+03,1.453000000000000000e+03,1.454000000000000000e+03
1.449000000000000000e+03,1.449000000000000000e+03,1.448000000000000000e+03,1.449000000000000000e+03,1.452000000000000000e+03,1.451000000000000000e+03,1.451000000000000000e+03,1.447000000000000000e+03,1.446000000000000000e+03,1.442000000000000000e+03,1.442000000000000000e+03,1.442000000000000000e+03,1.443000000000000000e+03,1.444000000000000000e+03,1.446000000000000000e+03,1.450000000000000000e+03,1.453000000000000000e+03,1.454000000000000000e+03,1.457000000000000000e+03,1.455000000000000000e+03,1.454000000000000000e+03,1.452000000000000000e+03,1.453000000000000000e+03,1.452000000000000000e+03,1.453000000000000000e+03,1.454000000000000000e+03,1.455000000000000000e+03,1.455000000000000000e+03,1.455000000000000000e+03,1.454000000000000000e+03,1.453000000000000000e+03,1.453000000000000000e+03,1.451000000000000000e+03,1.452000000000000000e+03,1.449000000000000000e+03,1.449000000000000000e+03,1.447000000000000000e+03,1.450000000000000000e+03,1.452000000000000000e+03,1.454000000000000000e+03,1.455000000000000000e+03,1.456000000000000000e+03,1.456000000000000000e+03,1.456000000000000000e+03,1.455000000000000000e+03,1.456000000000000000e+03,1.456000000000000000e+03,1.456000000000000000e+03,1.456000000000000000e+03,1.456000000000000000e+03,1.456000000000000000e+03,1.456000000000000000e+03,1.456000000000000000e+03,1.455000000000000000e+03,1.455000000000000000e+03,1.456000000000000000e+03,1.455000000000000000e+03,1.455000000000000000e+03,1.456000000000000000e+03,1.456000000000000000e+03,1.455000000000000000e+03,1.456000000000000000e+03,1.455000000000000000e+03,1.455000000000000000e+03,1.455000000000000000e+03,1.457000000000000000e+03,1.456000000000000000e+03,1.457000000000000000e+03,1.456000000000000000e+03,1.456000000000000000e+03,1.455000000000000000e+03,1.454000000000000000e+03,1.455000000000000000e+03,1.456000000000000000e+03,1.456000000000000000e+03,1.457000000000000000e+03,1.456000000000000000e+03,1.455000000000000000e+03,1.455000000000000000e+03,1.455000000000000000e+03,1.456000000000000000e+03,1.456000000000000000e+03,1.457000000000000000e+03,1.456000000000000000e+03,1.456000000000000000e+03,1.455000000000000000e+03,1.457000000000000000e+03,1.456000000000000000e+03,1.457000000000000000e+03,1.457000000000000000e+03,1.457000000000000000e+03,1.456000000000000000e+03,1.456000000000000000e+03,1.456000000000000000e+03,1.456000000000000000e+03,1.457000000000000000e+03,1.457000000000000000e+03,1.457000000000000000e+03,1.457000000000000000e+03,1.456000000000000000e+03,1.455000000000000000e+03,1.455000000000000000e+03,1.455000000000000000e+03,1.455000000000000000e+03,1.455000000000000000e+03,1.455000000000000000e+03,1.455000000000000000e+03,1.454000000000000000e+03,1.454000000000000000e+03,1.453000000000000000e+03,1.452000000000000000e+03,1.452000000000000000e+03,1.452000000000000000e+03,1.452000000000000000e+03,1.452000000000000000e+03,1.454000000000000000e+03,1.454000000000000000e+03,1.454000000000000000e+03,1.454000000000000000e+03
